x y z normal_x normal_y normal_z
0.500281 -0.201611 0.0282648 -0.238849 0.257157 -0.936387
0.50078 -0.200751 0.0283728 -0.238849 0.257157 -0.936387
0.50128 -0.199891 0.0284808 -0.238849 0.257157 -0.936387
0.501776 -0.199029 0.0285823 -0.23019 0.242553 -0.942433
0.502264 -0.19816 0.0286665 -0.23019 0.242553 -0.942433
0.502751 -0.197292 0.0287506 -0.23019 0.242553 -0.942433
0.503239 -0.196423 0.0288348 -0.23019 0.242553 -0.942433
0.503727 -0.195554 0.028919 -0.23019 0.242553 -0.942433
0.504215 -0.194685 0.0290032 -0.23019 0.242553 -0.942433
0.504703 -0.193816 0.0290874 -0.267699 0.212502 -0.939777
0.50519 -0.192947 0.0291716 -0.267699 0.212502 -0.939777
0.505678 -0.192078 0.0292558 -0.267699 0.212502 -0.939777
0.506166 -0.191209 0.0293399 -0.267699 0.212502 -0.939777
0.506653 -0.19034 0.0294227 -0.267699 0.212502 -0.939777
0.507128 -0.189462 0.0294867 -0.267699 0.212502 -0.939777
0.507603 -0.188584 0.0295507 -0.267699 0.212502 -0.939777
0.508077 -0.187707 0.0296146 -0.267699 0.212502 -0.939777
0.508552 -0.186829 0.0296786 -0.263131 0.230598 -0.936796
0.509027 -0.185951 0.0297426 -0.263131 0.230598 -0.936796
0.509502 -0.185073 0.0298066 -0.263131 0.230598 -0.936796
0.509977 -0.184196 0.0298705 -0.263131 0.230598 -0.936796
0.510452 -0.183318 0.0299345 -0.263131 0.230598 -0.936796
0.510926 -0.18244 0.0299985 -0.271262 0.2276 -0.935209
0.511401 -0.181562 0.0300625 -0.271262 0.2276 -0.935209
0.511876 -0.180685 0.0301264 -0.271262 0.2276 -0.935209
0.512351 -0.179807 0.0301904 -0.294298 0.183503 -0.937931
0.512826 -0.178929 0.0302544 -0.294298 0.183503 -0.937931
0.513301 -0.178051 0.0303184 -0.294298 0.183503 -0.937931
0.513775 -0.177174 0.0303823 -0.294298 0.183503 -0.937931
0.51423 -0.176283 0.0304068 -0.294298 0.183503 -0.937931
0.51468 -0.175391 0.0304246 -0.294298 0.183503 -0.937931
0.515131 -0.174498 0.0304425 -0.294298 0.183503 -0.937931
0.515582 -0.173606 0.0304603 -0.296791 0.187142 -0.936426
0.516033 -0.172713 0.0304782 -0.296791 0.187142 -0.936426
0.516484 -0.171821 0.030496 -0.296791 0.187142 -0.936426
0.516934 -0.170929 0.0305138 -0.296791 0.187142 -0.936426
0.517385 -0.170036 0.0305317 -0.296791 0.187142 -0.936426
0.517836 -0.169144 0.0305495 -0.296791 0.187142 -0.936426
0.518287 -0.168251 0.0305674 -0.296791 0.187142 -0.936426
0.518738 -0.167359 0.0305852 -0.296791 0.187142 -0.936426
0.519188 -0.166466 0.030603 -0.296791 0.187142 -0.936426
0.519639 -0.165574 0.0306209 -0.316936 0.139999 -0.938058
0.52009 -0.164681 0.0306387 -0.316936 0.139999 -0.938058
0.520541 -0.163789 0.0306566 -0.316936 0.139999 -0.938058
0.520992 -0.162897 0.0306744 -0.316936 0.139999 -0.938058
0.521442 -0.162004 0.0306923 -0.316936 0.139999 -0.938058
0.521893 -0.161112 0.0307101 -0.316936 0.139999 -0.938058
0.522341 -0.160218 0.0307226 -0.316936 0.139999 -0.938058
0.522761 -0.159311 0.030688 -0.316936 0.139999 -0.938058
0.52318 -0.158404 0.0306534 -0.316936 0.139999 -0.938058
0.5236 -0.157497 0.0306188 -0.316936 0.139999 -0.938058
0.52402 -0.15659 0.0305842 -0.316936 0.139999 -0.938058
0.52444 -0.155683 0.0305496 -0.343728 0.138426 -0.928811
0.524859 -0.154776 0.0305151 -0.343728 0.138426 -0.928811
0.525279 -0.153869 0.0304805 -0.343728 0.138426 -0.928811
0.525699 -0.152962 0.0304459 -0.343728 0.138426 -0.928811
0.526119 -0.152055 0.0304113 -0.342915 0.141576 -0.928636
0.526538 -0.151148 0.0303767 -0.333903 0.100907 -0.937191
0.526958 -0.150241 0.0303421 -0.333903 0.100907 -0.937191
0.527378 -0.149334 0.0303075 -0.333903 0.100907 -0.937191
0.527798 -0.148427 0.030273 -0.333903 0.100907 -0.937191
0.528217 -0.14752 0.0302384 -0.333903 0.100907 -0.937191
0.528637 -0.146613 0.0302038 -0.333903 0.100907 -0.937191
0.529057 -0.145706 0.0301692 -0.333903 0.100907 -0.937191
0.529477 -0.144799 0.0301346 -0.333903 0.100907 -0.937191
0.529896 -0.143892 0.0301 -0.333903 0.100907 -0.937191
0.530316 -0.142985 0.0300654 -0.333903 0.100907 -0.937191
0.530736 -0.142078 0.0300309 -0.333903 0.100907 -0.937191
0.531148 -0.141168 0.0299887 -0.333903 0.100907 -0.937191
0.531539 -0.14025 0.0299254 -0.333903 0.100907 -0.937191
0.531931 -0.139332 0.029862 -0.333903 0.100907 -0.937191
0.532322 -0.138414 0.0297987 -0.330274 0.103947 -0.938144
0.532713 -0.137496 0.0297354 -0.330274 0.103947 -0.938144
0.533104 -0.136578 0.0296721 -0.331081 0.068318 -0.941126
0.533496 -0.13566 0.0296087 -0.331081 0.068318 -0.941126
0.533887 -0.134741 0.0295454 -0.331081 0.068318 -0.941126
0.534278 -0.133823 0.0294821 -0.331081 0.068318 -0.941126
0.534669 -0.132905 0.0294188 -0.331081 0.068318 -0.941126
0.535061 -0.131987 0.0293555 -0.331081 0.068318 -0.941126
0.535452 -0.131069 0.0292921 -0.331081 0.068318 -0.941126
0.535843 -0.130151 0.0292288 -0.331081 0.068318 -0.941126
0.536234 -0.129233 0.0291655 -0.331081 0.068318 -0.941126
0.536625 -0.128315 0.0291022 -0.331081 0.068318 -0.941126
0.537017 -0.127397 0.0290389 -0.331081 0.068318 -0.941126
0.537408 -0.126478 0.0289755 -0.331081 0.068318 -0.941126
0.537799 -0.12556 0.0289122 -0.331081 0.068318 -0.941126
0.53819 -0.124642 0.0288489 -0.331081 0.068318 -0.941126
0.538582 -0.123724 0.0287856 -0.331081 0.068318 -0.941126
0.538973 -0.122806 0.0287222 -0.331081 0.068318 -0.941126
0.539364 -0.121888 0.0286589 -0.331081 0.068318 -0.941126
0.53972 -0.120959 0.0285574 -0.340295 0.0325829 -0.939754
0.540067 -0.120028 0.0284465 -0.340295 0.0325829 -0.939754
0.540413 -0.119097 0.0283356 -0.340295 0.0325829 -0.939754
0.54076 -0.118165 0.0282246 -0.340295 0.0325829 -0.939754
0.541107 -0.117234 0.0281137 -0.340295 0.0325829 -0.939754
0.541454 -0.116303 0.0280027 -0.340295 0.0325829 -0.939754
0.541801 -0.115371 0.0278918 -0.340295 0.0325829 -0.939754
0.542148 -0.11444 0.0277808 -0.340295 0.0325829 -0.939754
0.542494 -0.113508 0.0276699 -0.340295 0.0325829 -0.939754
0.542841 -0.112577 0.027559 -0.340295 0.0325829 -0.939754
0.543188 -0.111646 0.027448 -0.340295 0.0325829 -0.939754
0.543535 -0.110714 0.0273371 -0.340295 0.0325829 -0.939754
0.543882 -0.109783 0.0272261 -0.340295 0.0325829 -0.939754
0.544229 -0.108852 0.0271152 -0.356167 -0.0155754 -0.934292
0.544575 -0.10792 0.0270042 -0.356167 -0.0155754 -0.934292
0.544922 -0.106989 0.0268933 -0.356167 -0.0155754 -0.934292
0.545269 -0.106058 0.0267824 -0.356167 -0.0155754 -0.934292
0.545616 -0.105126 0.0266714 -0.356167 -0.0155754 -0.934292
0.545963 -0.104195 0.0265605 -0.356167 -0.0155754 -0.934292
0.54631 -0.103264 0.0264495 -0.349203 -0.0113045 -0.936979
0.546648 -0.10233 0.0263352 -0.349203 -0.0113045 -0.936979
0.546943 -0.101384 0.026204 -0.349203 -0.0113045 -0.936979
0.547239 -0.100437 0.0260729 -0.349203 -0.0113045 -0.936979
0.547534 -0.0994909 0.0259417 -0.349203 -0.0113045 -0.936979
0.547829 -0.0985446 0.0258105 -0.344397 -0.00103033 -0.938824
0.548125 -0.0975982 0.0256794 -0.344397 -0.00103033 -0.938824
0.54842 -0.0966519 0.0255482 -0.344397 -0.00103033 -0.938824
0.548716 -0.0957056 0.025417 -0.344397 -0.00103033 -0.938824
0.549011 -0.0947593 0.0252859 -0.344397 -0.00103033 -0.938824
0.549307 -0.093813 0.0251547 -0.344397 -0.00103033 -0.938824
0.549602 -0.0928667 0.0250235 -0.344397 -0.00103033 -0.938824
0.549897 -0.0919203 0.0248924 -0.344397 -0.00103033 -0.938824
0.550193 -0.090974 0.0247612 -0.342533 -0.0541783 -0.937942
0.550488 -0.0900277 0.0246301 -0.342533 -0.0541783 -0.937942
0.550784 -0.0890814 0.0244989 -0.342533 -0.0541783 -0.937942
0.551079 -0.0881351 0.0243677 -0.342533 -0.0541783 -0.937942
0.551375 -0.0871888 0.0242366 -0.342533 -0.0541783 -0.937942
0.55167 -0.0862424 0.0241054 -0.342533 -0.0541783 -0.937942
0.551966 -0.0852961 0.0239742 -0.375156 -0.0454694 -0.925846
0.552193 -0.0843333 0.0238329 -0.375156 -0.0454694 -0.925846
0.552402 -0.0833662 0.0236888 -0.375156 -0.0454694 -0.925846
0.552612 -0.082399 0.0235447 -0.375156 -0.0454694 -0.925846
0.552821 -0.0814319 0.0234007 -0.375156 -0.0454694 -0.925846
0.553031 -0.0804647 0.0232566 -0.375156 -0.0454694 -0.925846
0.55324 -0.0794976 0.0231126 -0.365483 -0.0533072 -0.92929
0.55345 -0.0785304 0.0229685 -0.345035 -0.0700154 -0.935975
0.553659 -0.0775633 0.0228244 -0.345035 -0.0700154 -0.935975
0.553868 -0.0765961 0.0226804 -0.345035 -0.0700154 -0.935975
0.554078 -0.075629 0.0225363 -0.345035 -0.0700154 -0.935975
0.554287 -0.0746618 0.0223922 -0.345035 -0.0700154 -0.935975
0.554497 -0.0736947 0.0222482 -0.345035 -0.0700154 -0.935975
0.554706 -0.0727275 0.0221041 -0.345102 -0.0772853 -0.935378
0.554916 -0.0717604 0.02196 -0.345102 -0.0772853 -0.935378
0.555118 -0.0707921 0.0218177 -0.345102 -0.0772853 -0.935378
0.555156 -0.0697981 0.0217149 -0.345102 -0.0772853 -0.935378
0.555195 -0.0688042 0.0216121 -0.345102 -0.0772853 -0.935378
0.555234 -0.0678102 0.0215093 -0.345102 -0.0772853 -0.935378
0.555273 -0.0668163 0.0214064 -0.345102 -0.0772853 -0.935378
0.555311 -0.0658223 0.0213036 -0.339325 -0.0899958 -0.936354
0.55535 -0.0648284 0.0212008 -0.339325 -0.0899958 -0.936354
0.555389 -0.0638344 0.021098 -0.339325 -0.0899958 -0.936354
0.555427 -0.0628405 0.0209951 -0.337493 -0.0857067 -0.937418
0.555466 -0.0618466 0.0208923 -0.337493 -0.0857067 -0.937418
0.555458 -0.0608578 0.020803 -0.337493 -0.0857067 -0.937418
0.555171 -0.0598999 0.0207941 -0.337493 -0.0857067 -0.937418
0.554884 -0.0589419 0.0207851 -0.360373 -0.103673 -0.927029
0.554597 -0.057984 0.0207762 -0.360373 -0.103673 -0.927029
0.55431 -0.0570261 0.0207672 -0.336965 -0.111209 -0.934926
0.554023 -0.0560682 0.0207582 -0.336965 -0.111209 -0.934926
0.553736 -0.0551102 0.0207493 -0.336965 -0.111209 -0.934926
0.55345 -0.0541523 0.0207403 -0.336965 -0.111209 -0.934926
0.553163 -0.0531944 0.0207313 -0.336965 -0.111209 -0.934926
0.552876 -0.0522364 0.0207224 -0.333318 -0.116654 -0.93557
0.552589 -0.0512785 0.0207134 -0.333318 -0.116654 -0.93557
0.552302 -0.0503206 0.0207045 -0.333318 -0.116654 -0.93557
0.552015 -0.0493626 0.0206955 -0.333318 -0.116654 -0.93557
0.551728 -0.0484047 0.0206865 -0.333318 -0.116654 -0.93557
0.551442 -0.0474468 0.0206776 -0.333318 -0.116654 -0.93557
0.551155 -0.0464889 0.0206686 -0.333318 -0.116654 -0.93557
0.550868 -0.0455309 0.0206597 -0.339074 -0.127147 -0.932128
0.550452 -0.0446262 0.0206758 -0.339074 -0.127147 -0.932128
0.549982 -0.0437442 0.0207027 -0.339074 -0.127147 -0.932128
0.549512 -0.0428621 0.0207297 -0.33834 -0.136232 -0.93111
0.549041 -0.04198 0.0207566 -0.33834 -0.136232 -0.93111
0.548571 -0.041098 0.0207835 -0.332104 -0.143379 -0.932282
0.5481 -0.0402159 0.0208104 -0.332104 -0.143379 -0.932282
0.54763 -0.0393339 0.0208373 -0.332104 -0.143379 -0.932282
0.54716 -0.0384518 0.0208642 -0.320598 -0.14427 -0.936164
0.546689 -0.0375698 0.0208911 -0.320598 -0.14427 -0.936164
0.546219 -0.0366877 0.020918 -0.320598 -0.14427 -0.936164
0.545748 -0.0358057 0.0209449 -0.320598 -0.14427 -0.936164
0.545278 -0.0349236 0.0209718 -0.314169 -0.157829 -0.936156
0.544808 -0.0340416 0.0209987 -0.314169 -0.157829 -0.936156
0.544337 -0.0331595 0.0210256 -0.314169 -0.157829 -0.936156
0.543867 -0.0322775 0.0210525 -0.313468 -0.155468 -0.936786
0.543397 -0.0313954 0.0210795 -0.313468 -0.155468 -0.936786
0.542923 -0.0305157 0.0211069 -0.313468 -0.155468 -0.936786
0.542322 -0.0297176 0.0211532 -0.313468 -0.155468 -0.936786
0.541721 -0.0289195 0.0211996 -0.313468 -0.155468 -0.936786
0.54112 -0.0281215 0.0212459 -0.305157 -0.165423 -0.937824
0.540519 -0.0273234 0.0212922 -0.305157 -0.165423 -0.937824
0.539919 -0.0265254 0.0213386 -0.305157 -0.165423 -0.937824
0.539318 -0.0257273 0.0213849 -0.305157 -0.165423 -0.937824
0.538717 -0.0249292 0.0214313 -0.305157 -0.165423 -0.937824
0.538116 -0.0241312 0.0214776 -0.305157 -0.165423 -0.937824
0.537516 -0.0233331 0.0215239 -0.305157 -0.165423 -0.937824
0.536915 -0.022535 0.0215703 -0.308337 -0.188217 -0.932471
0.536314 -0.021737 0.0216166 -0.308337 -0.188217 -0.932471
0.535713 -0.0209389 0.0216629 -0.308337 -0.188217 -0.932471
0.535112 -0.0201408 0.0217093 -0.308337 -0.188217 -0.932471
0.534512 -0.0193428 0.0217556 -0.298784 -0.204049 -0.932251
0.533911 -0.0185447 0.021802 -0.298784 -0.204049 -0.932251
0.53331 -0.0177467 0.0218483 -0.298784 -0.204049 -0.932251
0.532697 -0.0169591 0.0218963 -0.298784 -0.204049 -0.932251
0.532006 -0.0162382 0.0219551 -0.302454 -0.203081 -0.931279
0.531316 -0.0155174 0.0220139 -0.302454 -0.203081 -0.931279
0.530625 -0.0147965 0.0220727 -0.302454 -0.203081 -0.931279
0.529935 -0.0140757 0.0221315 -0.302454 -0.203081 -0.931279
0.529244 -0.0133548 0.0221902 -0.302454 -0.203081 -0.931279
0.528553 -0.0126339 0.022249 -0.302454 -0.203081 -0.931279
0.527863 -0.0119131 0.0223078 -0.302454 -0.203081 -0.931279
0.527172 -0.0111922 0.0223666 -0.302454 -0.203081 -0.931279
0.526482 -0.0104714 0.0224254 -0.302454 -0.203081 -0.931279
0.525791 -0.00975054 0.0224842 -0.302454 -0.203081 -0.931279
0.525101 -0.00902968 0.022543 -0.296641 -0.22304 -0.928578
0.52441 -0.00830883 0.0226017 -0.296641 -0.22304 -0.928578
0.523719 -0.00758798 0.0226605 -0.296641 -0.22304 -0.928578
0.523029 -0.00686712 0.0227193 -0.296641 -0.22304 -0.928578
0.522338 -0.00614627 0.0227781 -0.284962 -0.228541 -0.930895
0.521648 -0.00542542 0.0228369 -0.284962 -0.228541 -0.930895
0.520934 -0.00472856 0.0228942 -0.284962 -0.228541 -0.930895
0.520178 -0.00407671 0.0229486 -0.284962 -0.228541 -0.930895
0.519421 -0.00342485 0.0230031 -0.284962 -0.228541 -0.930895
0.518665 -0.002773 0.0230576 -0.284962 -0.228541 -0.930895
0.517909 -0.00212114 0.023112 -0.278844 -0.244553 -0.928676
0.517152 -0.00146929 0.0231665 -0.278844 -0.244553 -0.928676
0.516396 -0.000817437 0.023221 -0.278844 -0.244553 -0.928676
0.515639 -0.000165584 0.0232754 -0.278844 -0.244553 -0.928676
0.514883 0.00048627 0.0233299 -0.278844 -0.244553 -0.928676
0.514127 0.00113812 0.0233844 -0.278844 -0.244553 -0.928676
0.51337 0.00178998 0.0234388 -0.272674 -0.247267 -0.929789
0.512614 0.00244183 0.0234933 -0.272674 -0.247267 -0.929789
0.511857 0.00309368 0.0235477 -0.272674 -0.247267 -0.929789
0.511101 0.00374554 0.0236022 -0.272674 -0.247267 -0.929789
0.510345 0.00439739 0.0236567 -0.269444 -0.256777 -0.928152
0.509588 0.00504924 0.0237111 -0.269444 -0.256777 -0.928152
0.508823 0.00569044 0.0237641 -0.269444 -0.256777 -0.928152
0.50802 0.00628402 0.0238104 -0.269444 -0.256777 -0.928152
0.507216 0.00687761 0.0238566 -0.269444 -0.256777 -0.928152
0.506413 0.00747119 0.0239029 -0.269444 -0.256777 -0.928152
0.50561 0.00806477 0.0239492 -0.269444 -0.256777 -0.928152
0.504806 0.00865836 0.0239955 -0.269444 -0.256777 -0.928152
0.504003 0.00925194 0.0240417 -0.269444 -0.256777 -0.928152
0.503199 0.00984552 0.024088 -0.269444 -0.256777 -0.928152
0.502396 0.0104391 0.0241343 -0.231804 -0.241939 -0.942195
0.501592 0.0110327 0.0241805 -0.220467 -0.268728 -0.937646
0.500789 0.0116263 0.0242268 -0.220467 -0.268728 -0.937646
0.499985 0.0122199 0.0242731 -0.220467 -0.268728 -0.937646
0.499182 0.0128134 0.0243193 -0.220467 -0.268728 -0.937646
0.498379 0.013407 0.0243656 -0.220467 -0.268728 -0.937646
0.497575 0.0140006 0.0244119 -0.220467 -0.268728 -0.937646
0.496761 0.0145786 0.024449 -0.220467 -0.268728 -0.937646
0.495918 0.0151169 0.0244629 -0.220467 -0.268728 -0.937646
0.495075 0.0156552 0.0244768 -0.220467 -0.268728 -0.937646
0.494233 0.0161934 0.0244907 -0.199123 -0.271734 -0.941547
0.49339 0.0167317 0.0245047 -0.199123 -0.271734 -0.941547
0.492547 0.01727 0.0245186 -0.183639 -0.288095 -0.939829
0.491705 0.0178083 0.0245325 -0.183639 -0.288095 -0.939829
0.490862 0.0183466 0.0245464 -0.183639 -0.288095 -0.939829
0.490019 0.0188848 0.0245603 -0.183639 -0.288095 -0.939829
0.489177 0.0194231 0.0245742 -0.183639 -0.288095 -0.939829
0.488334 0.0199614 0.0245881 -0.183639 -0.288095 -0.939829
0.487491 0.0204997 0.024602 -0.188331 -0.287422 -0.939106
0.486649 0.021038 0.0246159 -0.188331 -0.287422 -0.939106
0.485798 0.0215624 0.0246283 -0.188331 -0.287422 -0.939106
0.484931 0.0220608 0.0246379 -0.188331 -0.287422 -0.939106
0.484064 0.0225591 0.0246474 -0.178154 -0.29732 -0.93801
0.483197 0.0230574 0.024657 -0.178154 -0.29732 -0.93801
0.48233 0.0235558 0.0246665 -0.178154 -0.29732 -0.93801
0.481463 0.0240541 0.0246761 -0.178154 -0.29732 -0.93801
0.480596 0.0245524 0.0246856 -0.178154 -0.29732 -0.93801
0.479729 0.0250508 0.0246952 -0.178154 -0.29732 -0.93801
0.478862 0.0255491 0.0247048 -0.178154 -0.29732 -0.93801
0.477995 0.0260475 0.0247143 -0.178154 -0.29732 -0.93801
0.477126 0.0265409 0.0247219 -0.178154 -0.29732 -0.93801
0.476238 0.0270002 0.0247155 -0.147868 -0.290854 -0.945272
0.475349 0.0274595 0.0247092 -0.147868 -0.290854 -0.945272
0.474461 0.0279188 0.0247028 -0.140521 -0.295058 -0.94509
0.473573 0.0283781 0.0246964 -0.140521 -0.295058 -0.94509
0.472684 0.0288374 0.0246901 -0.140521 -0.295058 -0.94509
0.471796 0.0292967 0.0246837 -0.141936 -0.32105 -0.936366
