ply
format ascii 1.0
comment Generated by the CGAL library
element vertex 627
property double x
property double y
property double z
property double nx
property double ny
property double nz
property uint plane_index
property uint red
property uint green
property uint blue
end_header
0.0157679 -0.115226 0.0440907 -0.241843 0.241916 -0.939675 5 251 213 113 
-0.00366057 -0.18669 0.0142717 0.477163 0.583411 -0.657227 18446744073709551615 0 0 0 
0.0468364 -0.200018 -0.0060611 -0.70703 0.707183 1.46804e-05 2 53 237 32 
0.0121315 -0.122526 0.0431473 -0.241881 0.241861 -0.939679 5 251 213 113 
0.0206234 -0.114035 0.0431471 -0.241895 0.241933 -0.939657 5 251 213 113 
0.0329865 -0.113752 0.0400377 -0.241805 0.241961 -0.939673 5 251 213 113 
0.00600643 -0.14423 0.0391373 -0.241861 0.24199 -0.939651 5 251 213 113 
0.0272482 -0.176519 0.0253608 -0.24184 0.24167 -0.939739 5 251 213 113 
0.105025 -0.116016 0.0101154 -0.206758 -0.211808 -0.95519 6 10 131 106 
0.104271 -0.142582 -0.00239633 -0.707267 0.706947 2.51728e-06 2 53 237 32 
0.108705 -0.116034 0.00934267 -0.188033 -0.185292 -0.964526 6 10 131 106 
0.0178065 -0.177967 0.0216502 0.683186 0.726317 -0.0756362 7 47 83 95 
0.0406685 -0.10074 0.0351982 0.312655 0.936348 0.159684 18446744073709551615 0 0 0 
0.014503 -0.143587 0.0478624 0.963868 0.184641 -0.192003 18446744073709551615 0 0 0 
0.114036 -0.116643 0.0085552 -0.150627 -0.151573 -0.976902 6 10 131 106 
-0.0183029 -0.135442 0.0142722 8.87151e-06 2.55853e-07 -1 0 216 196 10 
-0.041728 -0.0764493 -0.0084943 -0.70714 0.707073 1.46451e-05 4 207 51 147 
-0.00610095 -0.0963956 0.0142717 1.27389e-06 -4.01227e-08 -1 0 216 196 10 
0.0353858 -0.0817534 0.0142717 0 0 -1 0 216 196 10 
0.0129062 -0.204886 -0.0204034 0.707465 0.706749 -0.000142944 3 83 108 175 
-0.0695514 -0.117139 0.0142722 0.0759427 0.0723338 -0.994485 0 216 196 10 
0.12376 -0.103608 -0.0200852 -0.707247 -0.706966 2.7626e-05 1 31 190 46 
-0.0231836 -0.113479 0.0142717 -1.38545e-05 -2.99294e-06 -1 0 216 196 10 
0.0364615 -0.210392 -0.0138315 -0.707095 0.707118 4.70463e-06 2 53 237 32 
-0.0487029 -0.0834244 -0.00859521 -0.707177 0.707037 3.49172e-05 4 207 51 147 
-0.0500278 -0.117139 0.0142717 -2.84836e-05 -2.89621e-05 -1 0 216 196 10 
-0.0329451 -0.117139 0.0142717 -1.018e-05 1.44838e-05 -1 0 216 196 10 
0.047933 -0.182909 0.018393 -0.241869 0.241661 -0.939733 5 251 213 113 
0.0207435 -0.206213 0.0142717 0.0390038 0.0316639 -0.998737 0 216 196 10 
0.0183032 -0.0231839 0.0142717 0.030668 -0.00996486 -0.99948 0 216 196 10 
-0.0268442 -0.117139 0.0142717 -3.61875e-06 2.04447e-05 -1 0 216 196 10 
-0.0207432 -0.117139 0.0142717 -8.40749e-06 1.44844e-05 -1 0 216 196 10 
-0.0183029 -0.117139 0.0142717 -3.56057e-06 1.03121e-10 -1 0 216 196 10 
0.0834689 -0.063317 0.00122111 -0.70706 -0.707154 2.88483e-05 1 31 190 46 
-0.0751788 -0.116802 -0.010802 0.707381 0.706832 1.04124e-05 3 83 108 175 
-0.0028702 -0.105301 0.0185299 -0.692083 0.633522 0.345935 18446744073709551615 0 0 0 
-0.00821126 -0.117296 0.0248004 -0.858168 0.395571 0.327218 18446744073709551615 0 0 0 
-0.03625 -0.15573 -0.013941 0.707026 0.707187 -2.45018e-06 3 83 108 175 
0.045805 -0.201048 0.0129193 -0.607177 0.742491 -0.282917 18446744073709551615 0 0 0 
-0.00593675 -0.117474 0.0310696 -0.845228 0.426007 0.322658 18446744073709551615 0 0 0 
0.042707 -0.0268445 0.0142717 -0.0670927 -0.054269 -0.99627 0 216 196 10 
0.118505 -0.118505 0.00814342 -0.129906 -0.127746 -0.983263 6 10 131 106 
0.00361075 -0.117623 0.0466022 0.0319867 0.0787142 -0.996384 18446744073709551615 0 0 0 
-0.00854133 -0.101276 0.0142717 -0 -0 -1 0 216 196 10 
0.0450947 -0.17916 0.0200887 -0.241942 0.242116 -0.939598 5 251 213 113 
-0.00541584 -0.186565 -0.00840215 0.707098 0.707115 5.69258e-05 3 83 108 175 
-0.00121589 -0.110646 0.0318575 -0.730165 0.591045 0.34282 18446744073709551615 0 0 0 
0.0133421 -0.117652 0.0440898 -0.241859 0.241896 -0.939676 5 251 213 113 
0.0597896 -0.0475877 0.0142717 7.12068e-06 -0 -1 0 216 196 10 
0.065942 -0.120037 0.0245858 0.720141 0.690092 0.0719026 18446744073709551615 0 0 0 
0.0157699 -0.117666 0.0434613 -0.241824 0.24186 -0.939694 5 251 213 113 
0.0207435 -0.0866341 0.0142717 -3.56063e-06 2.31993e-10 -1 0 216 196 10 
0.0673005 -0.15683 0.02012 -0.242009 0.242142 -0.939574 5 251 213 113 
0.0695515 -0.0780928 0.0142717 -2.03616e-05 1.17949e-09 -1 0 216 196 10 
0.0634504 -0.0817534 0.0142717 7.23924e-06 2.84884e-05 -1 0 216 196 10 
0.040194 -0.171738 0.0232592 -0.24177 0.241595 -0.939776 5 251 213 113 
0.0548938 -0.186639 0.0156412 -0.287646 0.293771 -0.911569 5 251 213 113 
0.00606677 -0.132257 0.0422039 -0.241867 0.242369 -0.939552 5 251 213 113 
0.0182172 -0.117973 0.0427528 -0.241857 0.241683 -0.939731 5 251 213 113 
-0.048243 -0.143737 -0.0228061 0.707058 0.707155 4.37678e-06 3 83 108 175 
0.0180024 -0.159776 0.0320491 -0.241833 0.241739 -0.939723 5 251 213 113 
0.0280908 -0.117884 0.0402345 -0.173566 -0.217226 -0.960566 18446744073709551615 0 0 0 
-0.00432968 -0.155274 0.0183397 0.757906 0.644148 -0.103206 7 47 83 95 
0.0426245 -0.166845 0.0238938 -0.2419 0.242207 -0.939585 5 251 213 113 
0.0305935 -0.116645 0.0399093 -0.429329 -0.219357 -0.876105 18446744073709551615 0 0 0 
0.0352144 -0.117786 0.0384264 -0.427778 -0.325324 -0.843309 18446744073709551615 0 0 0 
0.0932593 -0.0731075 0.00122118 -0.707084 -0.70713 -2.32519e-05 1 31 190 46 
-0.0414865 -0.108598 0.0142717 -2.17186e-05 -2.84694e-05 -1 0 216 196 10 
0.0391658 -0.117803 0.0374048 -0.362725 0.159338 -0.918173 5 251 213 113 
0.0721847 -0.141062 0.0229211 -0.241858 0.241724 -0.93972 5 251 213 113 
-0.0201031 -0.171877 -0.0139219 0.707348 0.706866 9.38825e-06 3 83 108 175 
4.81276e-05 -0.192028 0.00119237 0.707123 0.707091 -4.4931e-06 3 83 108 175 
0.0425163 -0.117831 0.0365357 -0.269082 0.17709 -0.946696 5 251 213 113 
0.0813179 -0.101804 0.0137575 -0.262734 0.110049 -0.958572 18446744073709551615 0 0 0 
-0.00277688 -0.189203 0.0100559 0.663798 0.733374 -0.146746 3 83 108 175 
0.0449486 -0.116624 0.0362198 -0.241872 0.241639 -0.939738 5 251 213 113 
-0.010221 -0.140437 0.0256451 0.959213 0.208481 -0.190908 18446744073709551615 0 0 0 
-0.0353855 -0.098836 0.0142717 -0 -0 -1 0 216 196 10 
0.0514335 -0.116861 0.0344899 -0.241792 0.241896 -0.939693 5 251 213 113 
0.0719918 -0.0658909 0.0142717 4.07211e-05 1.44808e-05 -1 0 216 196 10 
0.0670587 -0.179795 0.00997808 -0.707195 0.706845 -0.0156701 2 53 237 32 
0.0573493 -0.0695515 0.0142717 -0 -0 -1 0 216 196 10 
0.0156153 -0.149134 0.0360396 0.465313 0.666699 -0.582234 18446744073709551615 0 0 0 
-0.0231836 -0.0780928 0.0142717 -3.56036e-06 -1.44793e-05 -1 0 216 196 10 
0.0335409 -0.169073 0.0256575 -0.241945 0.241962 -0.939637 5 251 213 113 
0.00916498 -0.149687 0.0369202 -0.241889 0.241818 -0.939688 5 251 213 113 
0.0719918 -0.117139 0.0142717 2.03649e-05 -0 -1 0 216 196 10 
0.0679465 -0.0477948 -0.0172953 -0.707107 -0.707107 6.06856e-06 1 31 190 46 
0.0780928 -0.117139 0.0142717 -0 -0 -1 0 216 196 10 
0.0744322 -0.111038 0.0142717 -2.84884e-05 -3.25606e-05 -1 0 216 196 10 
-0.0382394 -0.153198 0.01356 0.493475 0.640965 -0.587917 18446744073709551615 0 0 0 
0.0981555 -0.0780036 -0.010991 -0.707061 -0.707153 -1.05979e-05 1 31 190 46 
0.0866341 -0.117139 0.0142722 -0.0524297 -0.0419688 -0.997742 0 216 196 10 
0.0238709 -0.215852 -0.00240003 0.70737 0.706843 8.36015e-07 3 83 108 175 
0.0902971 -0.117142 0.0141404 -0.134207 -0.147515 -0.979912 0 216 196 10 
0.0275624 -0.151302 0.0557139 -0.276489 0.103536 -0.955424 18446744073709551615 0 0 0 
0.0316259 -0.215227 0.00999805 -0.715385 0.691462 -0.100524 2 53 237 32 
-0.0560463 -0.0907677 0.00122794 -0.707257 0.706957 -3.10366e-06 4 207 51 147 
0.0390141 -0.0984205 0.0246859 0.358243 0.923086 0.139908 18446744073709551615 0 0 0 
0.093905 -0.116931 0.0133103 -0.2173 -0.220443 -0.950887 6 10 131 106 
0.098836 -0.143983 0.0142722 -0.0823768 0.0896099 -0.992564 0 216 196 10 
0.00962563 -0.116811 0.045263 -0.241845 0.241919 -0.939673 5 251 213 113 
0.0208388 -0.212819 -0.0173877 0.707092 0.707122 4.56671e-05 3 83 108 175 
0.0183032 -0.18669 0.0142717 -1.85533e-09 -2.84738e-05 -1 0 216 196 10 
0.010567 -0.202548 0.00704467 0.707629 0.706584 -2.50051e-05 3 83 108 175 
-0.000760078 -0.0354817 -0.0110115 -0.707108 0.707105 -5.32548e-06 4 207 51 147 
-0.0597893 -0.1208 0.0142722 4.88633e-05 -0 -1 0 216 196 10 
0.00555837 -0.197539 -0.00840079 0.707123 0.707091 4.45062e-05 3 83 108 175 
-0.0500278 -0.1208 0.0142717 -3.42032e-05 -4.54351e-05 -1 0 216 196 10 
0.00958566 -0.158655 0.0345039 -0.241858 0.241667 -0.939735 5 251 213 113 
0.108736 -0.138118 -0.0226742 -0.70705 0.707163 -5.73046e-05 2 53 237 32 
-0.0353855 -0.1208 0.0142717 -1.62787e-05 -8.54205e-05 -1 0 216 196 10 
0.00854133 -0.0695515 0.0142717 -3.99409e-06 -1.84729e-05 -1 0 216 196 10 
-0.0152132 -0.176767 0.00120022 0.707105 0.707109 -1.71567e-06 3 83 108 175 
-0.0268442 -0.1208 0.0142717 0 -2.84803e-05 -1 0 216 196 10 
0.0135179 -0.0212035 0.00122887 -0.707093 0.707121 -1.72622e-05 4 207 51 147 
-0.0353855 -0.108598 0.0142717 9.54948e-06 -2.02111e-05 -1 0 216 196 10 
-0.0207432 -0.1208 0.0142717 1.85595e-09 -2.84835e-05 -1 0 216 196 10 
-0.0487645 -0.083486 -0.00203031 -0.707087 0.707127 2.93325e-05 4 207 51 147 
0.00606216 -0.117607 0.0459752 -0.175293 0.162633 -0.970991 5 251 213 113 
-0.0500278 -0.125681 0.0142717 1.92584e-05 4.01145e-05 -1 0 216 196 10 
-0.0100274 -0.145327 0.0183187 0.897674 0.375463 -0.230669 7 47 83 95 
0.0780928 -0.104937 0.0142721 -0.0563985 -0.025238 -0.998089 0 216 196 10 
0.0407853 -0.0206332 0.0012137 -0.707102 -0.707111 6.4177e-06 1 31 190 46 
0.0122021 -0.0573493 0.0142717 -1.80993e-06 1.42434e-05 -1 0 216 196 10 
0.0275824 -0.0960387 0.0251615 0.0762664 0.969065 0.234725 18446744073709551615 0 0 0 
-0.0146423 -0.1208 0.0142717 0.210337 0.00577046 -0.977612 0 216 196 10 
0.120978 -0.125875 0.00358005 -0.707625 0.706583 -0.00256791 2 53 237 32 
0.0573493 -0.0597896 0.0142717 8.40431e-06 4.88779e-05 -1 0 216 196 10 
0.0210323 -0.0136893 -0.00613987 -0.707115 0.707098 -8.70065e-06 4 207 51 147 
0.0138612 -0.0208606 0.00368123 -0.707107 0.707107 -2.84325e-06 4 207 51 147 
0.00610095 -0.0817534 0.0142717 -0 1.42426e-05 -1 0 216 196 10 
-0.0109498 -0.120766 0.0205933 -0.905328 0.271976 0.326207 18446744073709551615 0 0 0 
-0.00831894 -0.120004 0.0274906 -0.888625 0.334324 0.313964 18446744073709551615 0 0 0 
-0.00620663 -0.120088 0.0335049 -0.876327 0.362766 0.316941 18446744073709551615 0 0 0 
-0.040993 -0.0757141 -0.0136643 -0.707128 0.707086 1.31691e-05 4 207 51 147 
-0.00361056 -0.119742 0.0400049 -0.840412 0.421936 0.340115 18446744073709551615 0 0 0 
0.0269129 -0.218893 -0.00585056 0.230707 0.972882 0.0165692 18446744073709551615 0 0 0 
-0.0384896 -0.0732112 -0.0111744 -0.707187 0.707027 -1.12381e-05 4 207 51 147 
5.52611e-05 -0.119711 0.0462503 0.339849 -0.212159 -0.916237 18446744073709551615 0 0 0 
0.0083287 -0.119283 0.0449608 -0.241873 0.241763 -0.939707 5 251 213 113 
0.0121299 -0.120085 0.0437756 -0.241892 0.242116 -0.939611 5 251 213 113 
-0.00296583 -0.189014 -0.0204058 0.707081 0.707133 4.71094e-05 3 83 108 175 
0.0157719 -0.120108 0.0428324 -0.241823 0.242417 -0.939551 5 251 213 113 
0.0254855 -0.120145 0.0412774 -0.203083 0.671912 0.712244 18446744073709551615 0 0 0 
0.0332936 -0.120208 0.043672 0.0817326 0.956367 0.280501 18446744073709551615 0 0 0 
0.0356041 -0.120419 0.0427469 0.210551 0.907532 0.363393 18446744073709551615 0 0 0 
0.0353858 -0.0744322 0.0142717 3.99312e-06 -1.84713e-05 -1 0 216 196 10 
-0.000397056 -0.132219 0.0438772 -0.241766 0.24229 -0.939598 5 251 213 113 
0.0720129 -0.0518608 -0.0229154 -0.707108 -0.707106 -1.95357e-05 1 31 190 46 
-0.0552306 -0.13675 0.0036305 0.70727 0.706944 -1.57524e-05 3 83 108 175 
0.0390464 -0.0329454 0.0142717 -0 1.62898e-05 -1 0 216 196 10 
0.0257438 -0.00897694 0.0061294 -0.581543 0.813203 0.0225665 4 207 51 147 
0.057269 -0.119904 0.0322054 -0.266402 0.221216 -0.938133 5 251 213 113 
0.0595832 -0.120383 0.0314865 -0.273954 0.183834 -0.94401 5 251 213 113 
0.0328365 -0.144723 0.0307603 -0.464486 0.831139 0.305713 18446744073709551615 0 0 0 
-0.0536884 -0.1208 0.0142722 0 -2.84803e-05 -1 0 216 196 10 
0.0908862 -0.0707343 -0.0141615 -0.70713 -0.707084 9.07319e-06 1 31 190 46 
0.0744322 -0.1208 0.0142717 2.64613e-05 4.09437e-05 -1 0 216 196 10 
-0.0414865 -0.1208 0.0142717 -1.448e-05 -7.12091e-05 -1 0 216 196 10 
0.0898597 -0.143954 0.015869 -0.441348 -0.33289 -0.833304 18446744073709551615 0 0 0 
0.0305051 -0.201333 0.0142717 -0 -0 -1 0 216 196 10 
0.0939553 -0.1208 0.0142722 -0.119433 -0.152089 -0.981124 0 216 196 10 
0.0305051 -0.0841937 0.0142717 -0 -0 -1 0 216 196 10 
0.119295 -0.099143 -0.0143341 -0.70726 -0.706954 -2.55281e-05 1 31 190 46 
0.0183032 -0.0597896 0.0142717 -8.21911e-10 4.8879e-05 -1 0 216 196 10 
0.102141 -0.120046 0.0118004 -0.254742 -0.253712 -0.933133 6 10 131 106 
0.0475877 -0.0780928 0.0142717 -1.42418e-05 -1.44785e-05 -1 0 216 196 10 
0.111142 -0.119692 0.00960016 -0.18878 -0.188 -0.963856 6 10 131 106 
-0.0329451 -0.0719918 0.0142717 0.0782008 -0.107274 -0.991149 0 216 196 10 
0.0145626 -0.134998 0.0478629 -0.925919 0.219856 0.307144 18446744073709551615 0 0 0 
0.113596 -0.119703 0.00913358 -0.173666 -0.177731 -0.968634 6 10 131 106 
0.0891468 -0.157706 0.0131275 -0.691338 0.6479 -0.319809 18446744073709551615 0 0 0 
-0.0719918 -0.117139 0.014272 0.384876 0.27813 -0.880065 18446744073709551615 0 0 0 
-0.0737644 -0.108486 -0.0112521 -0.707107 0.707107 -0 4 207 51 147 
0.123402 -0.119737 0.00772142 -0.268462 0.0392346 -0.962491 6 10 131 106 
0.0598942 -0.182869 0.0153245 -0.361261 0.356865 -0.861474 5 251 213 113 
0.0183032 -0.0573493 0.0142717 -4.63979e-10 -1.42414e-05 -1 0 216 196 10 
0.0634504 -0.0841937 0.0142717 7.24084e-06 2.03639e-05 -1 0 216 196 10 
-0.000192421 -0.107393 0.0278876 -0.658937 0.672159 0.337645 18446744073709551615 0 0 0 
0.108731 -0.108731 0.00814342 -0.139414 -0.123746 -0.982472 6 10 131 106 
-0.0622303 -0.12324 0.0142717 0.0289514 0.0548013 -0.998077 0 216 196 10 
0.0357905 -0.128464 0.0594737 -0.233236 0.200722 -0.951479 18446744073709551615 0 0 0 
0.0207435 -0.0658909 0.0142717 -0 -0 -1 0 216 196 10 
-0.0500278 -0.12324 0.0142722 -0 -0 -1 0 216 196 10 
-0.0475874 -0.12324 0.0142722 4.88763e-05 -0 -1 0 216 196 10 
0.126277 -0.106126 -0.00200691 -0.707198 -0.707015 -1.07148e-05 1 31 190 46 
0.00145136 -0.03327 0.00368396 -0.707111 0.707102 -7.71961e-08 4 207 51 147 
-0.045147 -0.12324 0.0142722 -2.84881e-05 -6.51758e-05 -1 0 216 196 10 
-0.0378259 -0.12324 0.0142717 -1.28405e-05 -8.18216e-05 -1 0 216 196 10 
-0.00854133 -0.0866341 0.0142717 -0 -0 -1 0 216 196 10 
0.0212998 -0.161892 0.0306561 -0.241862 0.241774 -0.939706 5 251 213 113 
-0.0536884 -0.117139 0.0142717 -2.1722e-05 -3.06582e-05 -1 0 216 196 10 
0.109911 -0.0897594 -0.0227392 -0.707023 -0.707191 1.82955e-05 1 31 190 46 
0.0818002 -0.165053 -0.0143216 -0.707198 0.707015 -7.55216e-06 2 53 237 32 
0.0695515 -0.117139 0.0142717 -2.03616e-05 -2.35831e-09 -1 0 216 196 10 
0.0086203 -0.108175 0.0455126 -0.321046 0.613593 0.72141 18446744073709551615 0 0 0 
0.00310939 -0.19509 -0.0204017 0.707101 0.707112 3.12338e-06 3 83 108 175 
-0.0268442 -0.12324 0.0142717 -5.89859e-10 -2.03683e-05 -1 0 216 196 10 
-0.0231836 -0.12324 0.0142717 -3.56057e-06 -3.2569e-05 -1 0 216 196 10 
0.0279183 -0.146874 0.0402846 -0.567655 0.786865 0.2421 18446744073709551615 0 0 0 
-0.00662381 -0.108354 0.0160688 -0.554916 0.464547 0.690119 18446744073709551615 0 0 0 
0.00368641 -0.103941 0.0278738 -0.567681 0.748469 0.342829 18446744073709551615 0 0 0 
-0.0158625 -0.12324 0.0142717 0.154027 -0.0757685 -0.985157 0 216 196 10 
-0.0134214 -0.123234 0.0145297 -0.573233 0.243034 0.782521 18446744073709551615 0 0 0 
-0.0658909 -0.117139 0.0142719 1.44842e-05 2.04494e-05 -1 0 216 196 10 
0.00366057 -0.0695515 0.0142717 4.57139e-06 -1.85977e-05 -1 0 216 196 10 
0.0841937 -0.0890745 0.0142722 -1.48429e-08 -5.69671e-05 -1 0 216 196 10 
0.0940058 -0.111098 0.0115876 -0.251442 -0.25433 -0.933859 6 10 131 106 
0.0572933 -0.170661 0.0191357 -0.241869 0.241769 -0.939706 5 251 213 113 
-0.00845524 -0.123121 0.0301481 -0.909235 0.283021 0.305271 18446744073709551615 0 0 0 
-0.0176621 -0.174318 -0.00600102 0.707307 0.706907 -1.10543e-05 3 83 108 175 
-0.00386852 -0.123117 0.0433496 -0.808047 0.393927 0.438043 18446744073709551615 0 0 0 
-0.0500278 -0.135442 0.0142717 0.0300018 0.0409011 -0.998713 0 216 196 10 
-0.000518478 -0.159642 0.0156554 0.623081 0.623357 -0.472437 18446744073709551615 0 0 0 
0.0353858 -0.0719918 0.0142717 -7.12119e-06 3.25818e-05 -1 0 216 196 10 
-0.00039784 -0.122505 0.0463774 0.040362 0.126489 -0.991147 18446744073709551615 0 0 0 
0.0720124 -0.0518608 0.00361818 -0.706981 -0.707232 1.91952e-05 1 31 190 46 
-0.0268442 -0.0866341 0.0142717 -0 2.03633e-05 -1 0 216 196 10 
0.0329454 -0.0817534 0.0142717 -1.62908e-05 1.4243e-05 -1 0 216 196 10 
-0.00849533 -0.140241 0.0338823 0.969232 0.143433 -0.200043 18446744073709551615 0 0 0 
0.121275 -0.101123 -0.00531889 -0.707278 -0.706936 7.19658e-06 1 31 190 46 
0.0890288 -0.144014 0.0178011 -0.512191 -0.251338 -0.821273 18446744073709551615 0 0 0 
0.0157739 -0.12255 0.0422029 -0.157439 0.0966514 -0.982788 5 251 213 113 
0.0182029 -0.122565 0.0415745 -0.110876 0.0588318 -0.992091 5 251 213 113 
0.00854133 -0.0329454 0.0142717 0.00955733 -0.028973 -0.999535 0 216 196 10 
0.0206285 -0.122557 0.0419197 -0.299835 0.50587 0.808823 18446744073709551615 0 0 0 
0.024638 -0.122945 0.0484011 -0.419284 0.850941 0.316387 18446744073709551615 0 0 0 
0.04799 -0.192089 0.0160153 -0.241868 0.241934 -0.939664 5 251 213 113 
0.0272115 -0.12219 0.0489612 -0.277515 0.905797 0.320183 18446744073709551615 0 0 0 
0.0279145 -0.115299 0.0409455 -0.279442 0.0463146 -0.959045 5 251 213 113 
-0.0110146 -0.13214 0.0257759 0.969051 -0.00903043 -0.246696 18446744073709551615 0 0 0 
0.0365387 -0.122424 0.0515043 0.200484 0.958463 0.202867 18446744073709551615 0 0 0 
0.0842493 -0.162604 0.00954743 -0.707397 0.706717 -0.0118589 2 53 237 32 
0.0329454 -0.06223 0.0142717 -1.62898e-05 4.63992e-10 -1 0 216 196 10 
0.0397708 -0.122381 0.0455959 0.365596 0.922882 0.120946 18446744073709551615 0 0 0 
0.0449629 -0.122737 0.0346427 -0.327614 -0.160467 -0.931085 18446744073709551615 0 0 0 
-0.00784993 -0.140504 0.0366532 0.96842 0.129574 -0.21301 18446744073709551615 0 0 0 
0.0963956 -0.128121 0.0142722 3.25728e-05 1.42439e-05 -1 0 216 196 10 
0.0473993 -0.122752 0.0340123 -0.287012 0.186361 -0.939624 5 251 213 113 
0.116343 -0.0963912 0.00633213 -0.589125 -0.558451 -0.584007 18446744073709551615 0 0 0 
0.119295 -0.099143 0.00597244 -0.698257 -0.649859 -0.300202 18446744073709551615 0 0 0 
-0.0176443 -0.174336 -0.0172861 0.707557 0.706656 -1.39314e-05 3 83 108 175 
0.0510552 -0.122776 0.0330653 -0.241806 0.241847 -0.939702 5 251 213 113 
-0.0176621 -0.174318 -0.022804 0.707199 0.707014 -4.48551e-05 3 83 108 175 
0.0305051 -0.0866341 0.0142717 -0 -0 -1 0 216 196 10 
0.0595908 -0.12283 0.0308547 -0.241864 0.241942 -0.939663 5 251 213 113 
0.0631649 -0.122713 0.0299647 -0.334904 0.16477 -0.927734 5 251 213 113 
0.011972 -0.0960622 0.0186103 -0.293327 0.903904 0.311313 18446744073709551615 0 0 0 
0.114853 -0.132 0.00358096 -0.707148 0.707066 -3.00588e-05 2 53 237 32 
-0.0353855 -0.152525 0.0142717 0.0723808 0.0743105 -0.994605 0 216 196 10 
-0.070443 -0.121538 0.0131333 0.58196 0.60989 -0.537918 18446744073709551615 0 0 0 
0.0363594 -0.122899 0.053912 0.123191 0.968314 0.217237 18446744073709551615 0 0 0 
0.0695515 -0.12324 0.0142717 0.404161 0.485876 0.77497 18446744073709551615 0 0 0 
0.0184378 -0.131675 0.0549677 -0.785481 0.508202 0.3532 18446744073709551615 0 0 0 
-0.0152132 -0.176767 -0.00600112 0.707287 0.706926 -1.09942e-05 3 83 108 175 
0.113631 -0.108743 0.00758219 -0.108923 -0.107237 -0.988249 6 10 131 106 
0.0841937 -0.12324 0.0142717 -1.06206e-08 4.073e-05 -1 0 216 196 10 
0.0158628 -0.0841937 0.0142717 1.78068e-06 3.25861e-05 -1 0 216 196 10 
0.0939553 -0.12324 0.0142722 -0.038122 -0.0476294 -0.998137 0 216 196 10 
0.0183032 -0.0915149 0.0142717 -0.0802422 0.286944 0.954581 18446744073709551615 0 0 0 
0.0988465 -0.123253 0.0137448 -0.181337 -0.176069 -0.967531 0 216 196 10 
-0.058525 -0.0932465 -0.0176811 -0.707152 0.707062 -2.23983e-05 4 207 51 147 
0.101973 -0.123354 0.0127976 -0.264082 -0.260338 -0.928701 6 10 131 106 
-0.00366057 -0.0890745 0.0142717 -4.57169e-06 1.85991e-05 -1 0 216 196 10 
0.0241558 -0.0938156 0.0167342 0.0259336 0.874944 0.483528 18446744073709551615 0 0 0 
0.0329454 -0.0866341 0.0142717 5.09041e-06 6.63331e-10 -1 0 216 196 10 
0.0453467 -0.126109 0.0400153 0.728221 0.685341 -0.00147411 18446744073709551615 0 0 0 
-0.0305048 -0.113479 0.0142717 -5.86847e-06 -3.39328e-05 -1 0 216 196 10 
0.0376117 -0.146807 0.0425391 -0.503812 0.790584 0.348066 18446744073709551615 0 0 0 
0.108991 -0.123304 0.0108612 -0.228488 -0.228522 -0.946346 6 10 131 106 
0.024714 -0.156161 0.0398502 0.378595 0.915266 0.137676 18446744073709551615 0 0 0 
0.113579 -0.123349 0.00985765 -0.196603 -0.193575 -0.961185 6 10 131 106 
0.0597896 -0.0695515 0.0142717 -1.32315e-05 -2.04696e-05 -1 0 216 196 10 
0.120547 -0.123147 0.00855412 -0.335834 0.0559235 -0.94026 18446744073709551615 0 0 0 
0.123415 -0.123415 0.00669231 -0.673753 0.40011 -0.621264 18446744073709551615 0 0 0 
0.0523539 -0.152192 0.0251608 -0.241843 0.241944 -0.939668 5 251 213 113 
-0.0210346 -0.0557551 -0.00618664 -0.707107 0.707107 -1.79349e-06 4 207 51 147 
0.0549089 -0.108598 0.0142717 -0.587305 -0.373887 -0.717831 18446744073709551615 0 0 0 
-0.0158625 -0.125681 0.0142717 0.280654 -0.0734018 -0.956998 18446744073709551615 0 0 0 
0.0329454 -0.197672 0.0142717 0.137729 0.11223 -0.984091 0 216 196 10 
0.0305051 -0.0146426 0.0142717 -0.0769499 -0.0562461 -0.995447 0 216 196 10 
0.074371 -0.147864 0.0206077 -0.241643 0.24177 -0.939764 5 251 213 113 
0.0155982 -0.162212 0.0320413 -0.241816 0.241798 -0.939712 5 251 213 113 
0.0178056 -0.209786 -0.0108022 0.70707 0.707144 1.88024e-05 3 83 108 175 
0.111388 -0.125691 0.0108586 -0.235123 -0.230699 -0.94419 6 10 131 106 
0.0694035 -0.15279 0.0206182 -0.241559 0.241553 -0.939841 5 251 213 113 
-0.0268442 -0.101276 0.0142717 -0 -0 -1 0 216 196 10 
-0.0414865 -0.12324 0.014272 -1.44813e-05 -2.03761e-05 -1 0 216 196 10 
0.0159198 -0.138961 0.054696 -0.957229 0.121214 0.262718 18446744073709551615 0 0 0 
0.0336688 -0.0951958 0.0162111 0.296259 0.811078 0.504364 18446744073709551615 0 0 0 
-0.00601135 -0.129038 0.0422653 0.893129 -0.128639 -0.431014 18446744073709551615 0 0 0 
0.0939553 -0.147644 0.0142717 -0.385839 0.0507678 -0.921168 5 251 213 113 
0.051655 -0.10453 0.0142717 0.341348 0.359228 0.868583 18446744073709551615 0 0 0 
-0.0329451 -0.154965 0.0142717 0.125898 0.0963958 -0.987349 0 216 196 10 
0.0671111 -0.108598 0.0142717 1.24538e-06 3.49469e-05 -1 0 216 196 10 
0.00366057 -0.18669 0.0142717 -5.7733e-07 1.24872e-07 -1 0 216 196 10 
-0.0107872 -0.0455087 -0.0208762 -0.707097 0.707116 -5.2773e-06 4 207 51 147 
-0.00913326 -0.182847 -0.0203997 0.707145 0.707068 -9.27125e-06 3 83 108 175 
-0.0268442 -0.154965 0.0142717 1.64955e-09 -2.84803e-05 -1 0 216 196 10 
0.0729605 -0.0528088 -0.0111295 -0.707144 -0.70707 1.73901e-05 1 31 190 46 
-0.0321488 -0.0668704 -0.00243163 -0.707217 0.706996 -3.04915e-06 4 207 51 147 
0.0817531 -0.150564 0.018013 -0.241939 0.241743 -0.939695 5 251 213 113 
0.00608114 -0.10338 0.0304661 -0.521666 0.781068 0.343216 18446744073709551615 0 0 0 
-0.0353855 -0.117139 0.0142717 1.17975e-09 1.44844e-05 -1 0 216 196 10 
0.0573043 -0.174352 0.0181837 -0.241981 0.242051 -0.939605 5 251 213 113 
-0.00886508 -0.131828 0.0337764 0.963022 -0.0476591 -0.265174 18446744073709551615 0 0 0 
0.0353858 -0.0658909 0.0142717 -7.12129e-06 -1.44785e-05 -1 0 216 196 10 
-0.0378259 -0.137882 0.0142717 1.42422e-05 6.51723e-05 -1 0 216 196 10 
0.0602463 -0.0400943 -0.00610633 -0.707084 -0.70713 -1.00528e-05 1 31 190 46 
-0.00610095 -0.154965 0.0142717 0.447163 0.267133 -0.853631 18446744073709551615 0 0 0 
0.0274888 -0.218654 0.0135715 -0.0971453 0.754824 -0.648693 18446744073709551615 0 0 0 
0.0185845 -0.0161369 0.00982379 -0.706116 0.70479 0.0683531 4 207 51 147 
0.0908116 -0.0706597 0.00366349 -0.707153 -0.707061 -2.67093e-05 1 31 190 46 
-0.0231836 -0.150084 0.0142717 -1.54065e-05 -4.79884e-07 -1 0 216 196 10 
-0.0500278 -0.101276 0.0142717 0 0 -1 0 216 196 10 
0.00121443 -0.154234 0.037797 -0.086864 0.343861 -0.934994 5 251 213 113 
0.101791 -0.116134 0.010869 -0.222083 -0.223325 -0.949108 6 10 131 106 
0.0793512 -0.167502 -0.00835414 -0.707198 0.707015 2.48716e-05 2 53 237 32 
-0.0536884 -0.113479 0.0142717 2.17203e-05 1.42418e-05 -1 0 216 196 10 
0.0598825 -0.153361 0.0229217 -0.241806 0.241876 -0.939694 5 251 213 113 
0.0158628 -0.194011 0.0142717 7.98641e-06 3.69376e-05 -1 0 216 196 10 
0.0424204 -0.139381 0.0477271 0.900285 0.143197 -0.411074 18446744073709551615 0 0 0 
0.0634504 -0.0890745 0.0142717 1.44752e-05 -2.84754e-05 -1 0 216 196 10 
0.0301431 -0.126004 0.0614136 0.0301227 0.580251 0.81388 18446744073709551615 0 0 0 
0.0513866 -0.16169 0.0229647 -0.241852 0.242062 -0.939635 5 251 213 113 
0.0303655 -0.146969 0.0370803 -0.182206 0.948112 0.260548 18446744073709551615 0 0 0 
0.118538 -0.0983868 0.00374329 -0.699512 -0.710847 -0.073346 1 31 190 46 
0.0117451 -0.152686 0.0354843 -0.219214 0.269416 -0.937742 5 251 213 113 
0.0780928 -0.0927351 0.0142722 1.4467e-05 -6.13129e-05 -1 0 216 196 10 
0.102748 -0.125747 0.0133017 -0.235274 -0.236339 -0.942757 6 10 131 106 
0.0133675 -0.154332 0.0346432 -0.236102 0.246641 -0.939906 5 251 213 113 
0.0389729 -0.20788 -0.0202883 -0.707131 0.707083 0.000129885 2 53 237 32 
-0.0207432 -0.137882 0.0142722 3.74656e-05 -9.76505e-06 -1 0 216 196 10 
-0.00517225 -0.106351 0.0158917 -0.563181 0.562742 0.605101 18446744073709551615 0 0 0 
0.0279036 -0.120107 0.0428791 -0.293098 0.738593 0.607103 18446744073709551615 0 0 0 
-0.0268442 -0.111038 0.0142717 2.53406e-05 3.36302e-05 -1 0 216 196 10 
0.0278353 -0.153698 0.0550275 -0.255756 0.226632 -0.939801 18446744073709551615 0 0 0 
0.0475877 -0.0963956 0.0142717 3.94452e-05 -6.19149e-05 -1 0 216 196 10 
0.0378262 -0.198892 0.0142717 0.262736 0.42779 -0.86485 18446744073709551615 0 0 0 
0.0365236 -0.21033 -0.00835402 -0.707164 0.70705 -2.97049e-05 2 53 237 32 
-0.0451471 -0.0890745 0.0142717 5.24202e-06 1.6477e-05 -1 0 216 196 10 
0.0695514 -0.101276 0.0142722 6.37075e-07 -2.05285e-05 -1 0 216 196 10 
0.0431133 -0.0229612 0.00366359 -0.707122 -0.707091 -1.38461e-06 1 31 190 46 
-0.0146423 -0.147644 0.014272 1.82806e-05 -6.1947e-05 -1 0 216 196 10 
0.0744322 -0.12324 0.0142717 -0.0589324 -0.0967311 -0.993564 0 216 196 10 
0.00366057 -0.0658909 0.0142717 4.45074e-07 3.222e-12 -1 0 216 196 10 
0.0231274 -0.176497 0.0264263 -0.194797 0.314598 -0.929022 5 251 213 113 
0.0903878 -0.096495 0.00913382 -0.274934 -0.0733344 -0.958662 6 10 131 106 
0.12376 -0.103608 -0.00531961 -0.706878 -0.707335 -6.97576e-06 1 31 190 46 
-0.00366057 -0.0927351 0.0142717 -4.45074e-07 1.61128e-12 -1 0 216 196 10 
-0.00922465 -0.144129 0.0256502 0.941382 0.293755 -0.165855 18446744073709551615 0 0 0 
-0.0146423 -0.170828 0.0142717 0.0611418 0.0507513 -0.996838 0 216 196 10 
0.0185845 -0.0161369 -0.0171916 -0.707092 0.707121 -7.13593e-06 4 207 51 147 
-0.00364145 -0.1493 0.0403152 0.389654 0.372003 -0.842487 18446744073709551615 0 0 0 
0.0125981 -0.0991837 0.0282518 -0.340202 0.888009 0.309359 18446744073709551615 0 0 0 
-0.0402503 -0.15173 0.0133525 0.572721 0.584653 -0.574606 18446744073709551615 0 0 0 
0.113142 -0.133711 0.00952767 -0.632605 0.719378 -0.286891 18446744073709551615 0 0 0 
0.0279422 -0.155338 0.0545772 -0.168516 0.305769 -0.937074 18446744073709551615 0 0 0 
0.0276568 -0.00838841 0.00122413 0.0841123 0.996405 -0.0101211 18446744073709551615 0 0 0 
-0.0329451 -0.113479 0.0142717 4.45489e-06 -2.03787e-05 -1 0 216 196 10 
0.0573493 -0.0744322 0.0142717 -7.42659e-09 2.84884e-05 -1 0 216 196 10 
0.0694747 -0.156013 0.0197706 -0.241872 0.241774 -0.939704 5 251 213 113 
0.0524092 -0.136828 0.0496451 -0.967779 -0.242093 0.0692467 18446744073709551615 0 0 0 
0.0700383 -0.0498866 -0.0207626 -0.707083 -0.707131 -3.84585e-05 1 31 190 46 
0.0719216 -0.156033 0.0191362 -0.241814 0.241709 -0.939736 5 251 213 113 
-0.0531406 -0.13884 0.00600145 0.70716 0.707054 2.30149e-06 3 83 108 175 
0.0234799 -0.0112413 0.0098238 -0.688188 0.724398 0.0405545 4 207 51 147 
-0.0231836 -0.158626 0.0142717 -3.56057e-06 2.0629e-10 -1 0 216 196 10 
0.0158628 -0.0475877 0.0142717 1.78021e-06 -0 -1 0 216 196 10 
0.0613452 -0.11544 0.0187793 0.707208 0.707005 -9.87328e-06 18446744073709551615 0 0 0 
0.0661498 -0.149613 0.0222736 -0.241899 0.241877 -0.93967 5 251 213 113 
0.0329072 -0.14016 0.0200639 -0.654256 0.666407 0.357563 18446744073709551615 0 0 0 
0.0243221 -0.182478 0.0242344 0.118316 0.563439 -0.817642 18446744073709551615 0 0 0 
-0.0109377 -0.135334 0.0256279 0.97062 0.0817786 -0.226295 18446744073709551615 0 0 0 
0.101356 -0.113567 0.0103726 -0.220881 -0.22399 -0.949231 6 10 131 106 
-0.00561523 -0.0403365 0.0134457 -0.526034 0.562895 0.637524 18446744073709551615 0 0 0 
0.000443724 -0.158931 0.0363739 0.355911 0.559494 -0.748528 18446744073709551615 0 0 0 
0.0989417 -0.147912 -0.017901 -0.707542 0.706671 -8.55204e-05 2 53 237 32 
-0.00448656 -0.155269 0.0158939 0.733037 0.530012 -0.426315 7 47 83 95 
0.04263 -0.169302 0.0232596 -0.241819 0.241752 -0.939723 5 251 213 113 
0.0516201 -0.135192 0.0536685 -0.797526 -0.0699696 -0.599214 18446744073709551615 0 0 0 
0.0244041 -0.0305051 0.0142717 0 -3.56059e-06 -1 0 216 196 10 
-0.0751788 -0.116802 0.0060011 0.707381 0.706832 7.80559e-06 3 83 108 175 
0.0121546 -0.159223 0.0336967 -0.241865 0.241799 -0.939699 5 251 213 113 
-0.024225 -0.167755 0.00120615 0.707234 0.70698 6.03748e-06 3 83 108 175 
0.0465293 -0.153962 0.044855 -0.684797 0.669463 0.287875 18446744073709551615 0 0 0 
0.0390464 -0.0780928 0.0142717 -0 -0 -1 0 216 196 10 
0.0940734 -0.0928517 0.00800252 -0.239313 -0.00473494 -0.970931 6 10 131 106 
0.0671111 -0.111038 0.0142717 -1.85488e-09 -3.25606e-05 -1 0 216 196 10 
0.0151337 -0.159547 0.0328465 -0.241852 0.241737 -0.939719 5 251 213 113 
0.0553508 -0.0351991 -0.0109912 -0.707106 -0.707107 2.31614e-05 1 31 190 46 
-0.0183029 -0.0963956 0.0142717 -8.61205e-06 -1.94698e-05 -1 0 216 196 10 
0.0390464 -0.0744322 0.0142717 -1.65002e-09 2.84884e-05 -1 0 216 196 10 
0.0123719 -0.113887 0.0453087 -0.241877 0.241897 -0.939671 5 251 213 113 
0.0720039 -0.17485 -0.0226765 -0.707337 0.706877 0.00012733 2 53 237 32 
0.030338 -0.11043 0.0415745 -0.241872 0.241798 -0.939698 5 251 213 113 
0.0890728 -0.157402 0.0143695 -0.644274 0.551138 -0.530243 18446744073709551615 0 0 0 
0.0210323 -0.0136893 -0.00859582 -0.707116 0.707097 -8.88526e-06 4 207 51 147 
-0.0552306 -0.13675 -0.0108915 0.707134 0.707079 1.78704e-05 3 83 108 175 
0.0549089 -0.0719918 0.0142717 -7.12335e-06 3.25827e-05 -1 0 216 196 10 
-0.0224617 -0.169519 -0.00827537 0.707348 0.706865 1.41036e-05 3 83 108 175 
0.0353858 -0.0841937 0.0142717 -7.12119e-06 3.2586e-05 -1 0 216 196 10 
0.0419558 -0.158804 0.0494393 -0.375557 0.910284 -0.174183 18446744073709551615 0 0 0 
-0.00366057 -0.0597896 0.0142717 -4.4519e-07 3.25797e-05 -1 0 216 196 10 
-0.0305048 -0.098836 0.0142717 -1.06816e-05 2.08789e-09 -1 0 216 196 10 
0.0549636 -0.1591 0.022711 -0.241917 0.242203 -0.939582 5 251 213 113 
-0.0060638 -0.134617 0.0446372 0.792519 0.076123 -0.605077 18446744073709551615 0 0 0 
0.0520793 -0.144127 0.0512509 -0.422207 0.206608 -0.88264 18446744073709551615 0 0 0 
0.0597047 -0.159619 0.0213571 -0.241806 0.241946 -0.939677 5 251 213 113 
-0.0475874 -0.1208 0.0142717 1.29882e-08 -9.96583e-05 -1 0 216 196 10 
-0.00364099 -0.146854 0.0409451 0.213719 0.448579 -0.867814 18446744073709551615 0 0 0 
0.0634504 -0.0536887 0.0142717 7.23937e-06 1.02215e-05 -1 0 216 196 10 
0.114853 -0.132 0.00596827 -0.724731 0.688761 -0.0193331 2 53 237 32 
0.0719918 -0.0695515 0.0142717 2.03801e-05 -6.42418e-07 -1 0 216 196 10 
0.0645952 -0.159659 0.0200882 -0.241851 0.241855 -0.939688 5 251 213 113 
-0.0378259 -0.140323 0.0142717 3.57053e-05 4.2955e-05 -1 0 216 196 10 
0.042707 -0.0927351 0.0142717 -7.9087e-06 -4.39729e-07 -1 0 216 196 10 
0.0511849 -0.1349 0.0461858 0.923307 0.345013 -0.16873 18446744073709551615 0 0 0 
0.0449583 -0.126704 0.0569915 -0.445918 -0.475532 -0.758305 18446744073709551615 0 0 0 
-0.00854133 -0.162286 0.0142717 0 0 -1 0 216 196 10 
0.0456152 -0.0254632 -0.00848764 -0.707193 -0.707021 1.15841e-05 1 31 190 46 
0.0613452 -0.11544 0.0237871 0.707205 0.707009 6.83818e-06 18446744073709551615 0 0 0 
-0.0146423 -0.0866341 0.0142717 -1.80996e-06 2.03633e-05 -1 0 216 196 10 
0.0299412 -0.159167 0.0520385 -0.230899 0.912449 -0.337821 18446744073709551615 0 0 0 
0.0780928 -0.125681 0.0142717 2.35784e-09 2.03517e-05 -1 0 216 196 10 
0.0768711 -0.169604 0.0143695 -0.648733 0.545181 -0.530964 18446744073709551615 0 0 0 
0.0280647 -0.189131 0.0142717 0.236778 0.556191 -0.796611 18446744073709551615 0 0 0 
-0.0268442 -0.0744322 0.0142717 8.2501e-10 2.84884e-05 -1 0 216 196 10 
0.0305051 -0.0695515 0.0142717 0 0 -1 0 216 196 10 
0.01824 -0.161726 0.0314865 -0.241841 0.24195 -0.939666 5 251 213 113 
-0.0722987 -0.107962 0.0137685 0.603878 -0.407791 -0.684864 18446744073709551615 0 0 0 
-0.0364658 -0.0711873 -0.0171894 -0.707122 0.707092 2.19357e-05 4 207 51 147 
-0.00606662 -0.125543 0.0394126 -0.914573 0.261822 0.308231 18446744073709551615 0 0 0 
0.0401735 -0.161911 0.0257931 -0.241872 0.241945 -0.93966 5 251 213 113 
0.120979 -0.105093 0.00686884 -0.263181 -0.236975 -0.935189 6 10 131 106 
-0.070443 -0.121538 0.00596969 0.707362 0.706851 -1.10375e-06 3 83 108 175 
0.0631747 -0.161846 0.0198909 -0.241806 0.241941 -0.939678 5 251 213 113 
0.0423525 -0.136738 0.0556555 -0.00647826 0.294387 -0.955664 18446744073709551615 0 0 0 
0 -0.0866341 0.0142717 -0 2.03633e-05 -1 0 216 196 10 
0.0855389 -0.0653872 -0.0136365 -0.707174 -0.70704 5.37503e-06 1 31 190 46 
-0.0231836 -0.098836 0.0142717 -3.56057e-06 4.63978e-10 -1 0 216 196 10 
0.0815659 -0.159952 0.0156451 -0.288423 0.290572 -0.912349 5 251 213 113 
0.0112416 -0.0234796 -0.0208756 -0.70709 0.707124 8.18409e-06 4 207 51 147 
0.113618 -0.113618 0.00814342 -0.128341 -0.13416 -0.982614 6 10 131 106 
-0.0146423 -0.158626 0.0142717 -1.27762e-06 -3.70368e-11 -1 0 216 196 10 
0.0304576 -0.142541 0.0220304 -0.52603 0.8034 0.279 18446744073709551615 0 0 0 
0.0630771 -0.132434 0.0274856 -0.24183 0.241949 -0.93967 5 251 213 113 
0.0268376 -0.125299 0.0573564 -0.385944 0.867894 0.312743 18446744073709551615 0 0 0 
-0.0475874 -0.0866341 0.0142717 0.0455658 -0.109736 -0.992916 0 216 196 10 
0.123619 -0.104378 0.00645947 -0.369642 -0.378717 -0.848492 18446744073709551615 0 0 0 
0.0834686 -0.063317 -0.00854775 -0.707085 -0.707128 -1.0899e-05 1 31 190 46 
0.104539 -0.0846871 0.00638777 -0.564983 -0.647807 -0.511019 18446744073709551615 0 0 0 
0.006066 -0.129813 0.0428329 -0.241902 0.242004 -0.939637 5 251 213 113 
0.0817306 -0.161513 0.015201 -0.285959 0.314975 -0.904996 5 251 213 113 
0.00839912 -0.161101 0.03418 -0.219626 0.259965 -0.94031 5 251 213 113 
0.0244041 -0.0744322 0.0142717 -1.65004e-09 2.84884e-05 -1 0 216 196 10 
0.0891468 -0.157707 -0.0226751 -0.707108 0.707106 2.53524e-05 2 53 237 32 
0.031174 -0.0950646 0.0187045 0.18621 0.962551 0.197034 18446744073709551615 0 0 0 
0.00854133 -0.176929 0.0142717 -0 6.52401e-05 -1 0 216 196 10 
-0.0183029 -0.147644 0.0142717 3.10835e-05 4.19433e-05 -1 0 216 196 10 
0.0862937 -0.0661416 -0.0204439 -0.707013 -0.7072 -9.78133e-05 1 31 190 46 
-0.00561523 -0.0403365 -0.00611155 -0.707104 0.70711 5.0212e-07 4 207 51 147 
0 -0.164727 0.0142717 0.0694102 0.173644 -0.982359 0 216 196 10 
0.00889321 -0.164494 0.0331796 -0.0937666 0.458388 -0.883792 18446744073709551615 0 0 0 
-0.045147 -0.111038 0.0142722 -2.13627e-05 2.78232e-09 -1 0 216 196 10 
0.0329454 -0.209874 0.0142717 -0.0394724 0.0597087 -0.997435 0 216 196 10 
0.0305051 -0.0268445 0.0142717 0 0 -1 0 216 196 10 
0.0122021 -0.0890745 0.0142717 -9.37386e-07 -1.57043e-05 -1 0 216 196 10 
0.0377388 -0.164346 0.025794 -0.241801 0.241906 -0.939688 5 251 213 113 
-0.0726056 -0.107327 -0.0084414 -0.707191 0.707022 7.74496e-06 4 207 51 147 
0.0572605 -0.159598 0.0219913 -0.241821 0.241711 -0.939733 5 251 213 113 
-0.0231836 -0.128121 0.0142717 -3.17046e-05 -2.44647e-05 -1 0 216 196 10 
-0.00893595 -0.182501 0.0135572 0.486592 0.480489 -0.729629 18446744073709551615 0 0 0 
-0.0107872 -0.0455087 0.0135084 -0.596081 0.578057 0.557259 18446744073709551615 0 0 0 
0.105206 -0.085054 -0.00838555 -0.707107 -0.707107 -1.73801e-05 1 31 190 46 
0.0719918 -0.1208 0.0142717 -0.094394 -0.0524025 -0.994155 0 216 196 10 
0.0230088 -0.183169 0.0159814 0.723086 0.651295 -0.230134 7 47 83 95 
0.00850373 -0.153068 0.0362198 -0.241877 0.241885 -0.939674 5 251 213 113 
0.0185845 -0.0161369 0.013508 -0.596712 0.531237 0.601434 18446744073709551615 0 0 0 
0.0908116 -0.0706597 0.00122116 -0.707153 -0.707061 -1.13123e-05 1 31 190 46 
0.00866401 -0.10568 0.0397926 -0.53074 0.772028 0.349697 18446744073709551615 0 0 0 
0.0390464 -0.0390464 0.0142717 -0 -0 -1 0 216 196 10 
0.0231127 -0.164221 0.0295901 -0.241859 0.241838 -0.939691 5 251 213 113 
-0.0135906 -0.0483117 -0.0135906 -0.707125 0.707088 6.26571e-06 4 207 51 147 
0.119035 -0.127818 -0.0023891 -0.706837 0.707377 5.33344e-06 2 53 237 32 
0.0207435 -0.189131 0.0142717 5.13569e-06 -1.61118e-07 -1 0 216 196 10 
0.0279856 -0.164263 0.0283251 -0.241806 0.242038 -0.939653 5 251 213 113 
0.0475625 -0.189031 0.0169129 -0.241897 0.241996 -0.93964 5 251 213 113 
-0.00363914 -0.137075 0.0434618 -0.0403316 0.308086 -0.950503 5 251 213 113 
0.0298933 -0.164256 0.0278361 -0.241799 0.241524 -0.939787 5 251 213 113 
0.0553508 -0.0351991 0.00366373 -0.707118 -0.707095 -4.451e-06 1 31 190 46 
0.0112416 -0.0234796 -0.00859583 -0.707086 0.707127 -2.81509e-06 4 207 51 147 
-0.0207432 -0.140323 0.0142717 2.44343e-05 5.69736e-05 -1 0 216 196 10 
0.0989419 -0.147912 -0.00238676 -0.707183 0.707031 -1.73389e-05 2 53 237 32 
0.0906753 -0.113708 0.0133123 -0.220313 -0.21221 -0.952066 6 10 131 106 
-0.0604874 -0.131493 -0.0108023 0.707028 0.707185 -8.33617e-06 3 83 108 175 
0.0305051 -0.0780928 0.0142717 -0 -0 -1 0 216 196 10 
-0.0305048 -0.0927351 0.0142717 3.56059e-06 -1.03122e-10 -1 0 216 196 10 
0.0129052 -0.204886 0.0100638 0.654259 0.73717 -0.168896 3 83 108 175 
0.0436918 -0.100705 0.0262152 0.470914 0.875419 0.108999 18446744073709551615 0 0 0 
0.0817534 -0.1208 0.0142717 4.74231e-05 2.49797e-05 -1 0 216 196 10 
0.0791636 -0.0590114 -0.0228822 -0.707117 -0.707096 8.37937e-07 1 31 190 46 
-0.0378259 -0.131781 0.014272 7.12129e-06 4.3443e-05 -1 0 216 196 10 
-0.0183029 -0.143983 0.0142717 1.06817e-05 -3.09221e-10 -1 0 216 196 10 
0.0569607 -0.16513 0.0206447 -0.242083 0.242042 -0.93958 5 251 213 113 
-0.0414865 -0.147644 0.0142717 0.235276 0.28759 -0.928406 18446744073709551615 0 0 0 
0.0511766 -0.107589 0.0369427 -0.493186 -0.12346 -0.861119 18446744073709551615 0 0 0 
0.0939553 -0.137882 0.0142722 4.26707e-05 0.000130436 -1 0 216 196 10 
0.0280647 -0.0890745 0.0142717 0 0 -1 0 216 196 10 
-0.0231836 -0.0658909 0.0142717 0.0196191 -0.0206495 -0.999594 0 216 196 10 
0.0633885 -0.164566 0.0191357 -0.241804 0.241922 -0.939683 5 251 213 113 
0.0866341 -0.0841937 0.0142717 6.42523e-07 -2.03834e-05 -1 0 216 196 10 
0.0475877 -0.0841937 0.0142717 -7.12315e-06 3.2587e-05 -1 0 216 196 10 
0.0353858 -0.0866341 0.0142717 -7.12119e-06 0 -1 0 216 196 10 
-0.00610095 -0.101276 0.0142717 0.100808 -0.0765769 -0.991955 0 216 196 10 
0.0963956 -0.125681 0.0142722 -0.0413846 -0.0257242 -0.998812 0 216 196 10 
0.0671519 -0.179702 0.00673106 -0.707207 0.707007 -3.03304e-05 2 53 237 32 
0.0060318 -0.125703 0.0438992 -0.241954 0.241984 -0.939629 5 251 213 113 
0.0510044 -0.10558 0.0282997 0.618801 0.784371 0.0429787 18446744073709551615 0 0 0 
0.047431 -0.103027 0.0278777 0.54858 0.83273 0.0749741 18446744073709551615 0 0 0 
0.0696715 -0.16405 0.0176514 -0.241726 0.241722 -0.939755 5 251 213 113 
0.0810213 -0.0608692 0.0134321 -0.706639 -0.598572 -0.377322 18446744073709551615 0 0 0 
-0.0378259 -0.104937 0.0142717 -7.12191e-06 1.44814e-05 -1 0 216 196 10 
0.0327692 -0.110444 0.0409455 -0.241842 0.241818 -0.9397 5 251 213 113 
0.0776859 -0.165008 0.0153426 -0.32721 0.270767 -0.905328 5 251 213 113 
0.0280647 -0.194011 0.0142717 0.0886713 0.100232 -0.991005 0 216 196 10 
0.0988892 -0.115981 0.0115876 -0.250969 -0.254946 -0.933818 6 10 131 106 
0.03516 -0.149126 0.0460925 -0.231354 0.895058 0.381242 18446744073709551615 0 0 0 
0.0476549 -0.126228 0.0330519 -0.33618 0.161865 -0.927784 5 251 213 113 
0.0939534 -0.152522 0.0143695 -0.566286 0.528308 -0.632622 18446744073709551615 0 0 0 
-0.0268442 -0.143983 0.0142719 -2.53396e-05 -5.18066e-10 -1 0 216 196 10 
0.0304191 -0.161829 0.0283246 -0.241834 0.241779 -0.939712 5 251 213 113 
0.0328986 -0.186425 0.0213566 -0.241947 0.241605 -0.939728 5 251 213 113 
0.0671111 -0.0841937 0.0142717 -0 3.2586e-05 -1 0 216 196 10 
0.0186482 -0.174159 0.0281813 -0.182987 0.292781 -0.938507 5 251 213 113 
0.12586 -0.116084 0.00717068 -0.130294 -0.0133859 -0.991385 6 10 131 106 
0.0158628 -0.0268445 0.0142717 0.0243414 -0.022461 -0.999451 0 216 196 10 
-0.0109817 -0.167167 0.0142717 5.68844e-06 3.64922e-05 -1 0 216 196 10 
0.0244041 -0.0475877 0.0142717 -1.4743e-10 1.01816e-05 -1 0 216 196 10 
0.0938706 -0.149297 0.0152202 -0.417152 0.109049 -0.902271 5 251 213 113 
0.101401 -0.101401 0.00814342 -0.125139 -0.138017 -0.982492 6 10 131 106 
0.0353858 -0.0268445 0.0142717 -7.12129e-06 1.03114e-10 -1 0 216 196 10 
-0.042147 -0.149834 -0.00600021 0.707475 0.706738 -9.07323e-06 3 83 108 175 
-0.0769823 -0.111704 -0.0020233 0.84736 -0.531011 0.00282806 4 207 51 147 
0.0634209 -0.174407 0.0165949 -0.24191 0.241624 -0.939733 5 251 213 113 
-0.00854133 -0.0536887 0.0142717 2.21142e-10 1.44806e-05 -1 0 216 196 10 
0.0841937 -0.131781 0.0142717 -0.0809733 -0.0602017 -0.994897 0 216 196 10 
0.00366057 -0.167167 0.0142717 0.186532 0.144558 -0.971755 0 216 196 10 
0.0486012 -0.134395 0.0546503 -0.428994 0.187786 -0.883573 18446744073709551615 0 0 0 
0.106388 -0.122897 0.0114353 -0.251763 -0.249691 -0.935024 6 10 131 106 
0.0405466 -0.0203948 -0.00860072 -0.707097 -0.707116 8.60122e-06 1 31 190 46 
0.0546776 -0.11057 0.035274 -0.611521 -0.384149 -0.691716 18446744073709551615 0 0 0 
-0.02494 -0.0596617 0.0060879 -0.707057 0.707157 2.24185e-06 4 207 51 147 
0.00890031 -0.20088 -0.0172542 0.707098 0.707115 -1.11906e-05 3 83 108 175 
0.0305238 -0.137967 0.0112147 -0.66548 0.676376 0.315676 18446744073709551615 0 0 0 
0.0276568 -0.00838841 0.00979304 0.128968 0.990788 0.0413024 18446744073709551615 0 0 0 
0.0841937 -0.0841937 0.0142717 3.25862e-05 -6.109e-05 -1 0 216 196 10 
0.0382186 -0.0180669 -0.0207602 -0.707112 -0.707102 -3.09725e-05 1 31 190 46 
-0.0378259 -0.150084 0.0142717 0.0819588 0.111621 -0.990365 0 216 196 10 
0.0410665 -0.205787 -0.0199467 -0.707359 0.706854 -1.85524e-05 2 53 237 32 
0.00854133 -0.18669 0.0142717 -7.98712e-06 -3.69379e-05 -1 0 216 196 10 
0.0780928 -0.0963956 0.0142722 -1.44793e-05 -8.24751e-10 -1 0 216 196 10 
-0.0305048 -0.101276 0.0142717 -4.61854e-06 9.98633e-07 -1 0 216 196 10 
0.0363323 -0.15865 0.0515659 -0.288268 0.74228 -0.604915 18446744073709551615 0 0 0 
0.0484491 -0.148981 0.0509357 -0.295815 0.26285 -0.91837 18446744073709551615 0 0 0 
0.0122021 -0.197672 0.0142717 0.0601016 0.0853061 -0.99454 0 216 196 10 
-0.0460073 -0.0807281 0.00994752 -0.710896 0.70253 0.0328483 4 207 51 147 
-0.0231836 -0.164727 0.0142717 0.0741245 0.149063 -0.986046 0 216 196 10 
0.0475877 -0.101276 0.0142722 0.308131 0.551975 0.774841 18446744073709551615 0 0 0 
0.0597275 -0.166994 0.019453 -0.24181 0.241882 -0.939692 5 251 213 113 
0.0210323 -0.0136893 -0.0135077 -0.707115 0.707098 8.70058e-06 4 207 51 147 
0.0634504 -0.0744322 0.0142717 7.23924e-06 2.84884e-05 -1 0 216 196 10 
0.123427 -0.123427 0.00358005 -0.706846 0.707366 -0.00130618 2 53 237 32 
-0.0285006 -0.0632219 -0.00247831 -0.707151 0.707062 2.79657e-08 4 207 51 147 
0.0109147 -0.117637 0.0447187 -0.241883 0.241835 -0.939685 5 251 213 113 
0.066101 -0.120196 0.0276389 0.642037 0.649641 0.407131 18446744073709551615 0 0 0 
0.0449572 -0.120291 0.0352745 -0.316782 0.189908 -0.929292 5 251 213 113 
-0.0183029 -0.0719918 0.0142717 -7.12155e-06 3.2582e-05 -1 0 216 196 10 
0.0989064 -0.147822 0.0135089 -0.513746 0.548281 -0.659889 18446744073709551615 0 0 0 
0.0635919 -0.167323 0.018374 -0.241827 0.241884 -0.939687 5 251 213 113 
0.066052 -0.167704 0.0176424 -0.241791 0.241749 -0.939731 5 251 213 113 
0.0742466 -0.167592 0.0155625 -0.280303 0.287018 -0.915997 5 251 213 113 
0.0500271 -0.196448 0.0143695 -0.556112 0.712867 -0.427271 18446744073709551615 0 0 0 
0.0842491 -0.162604 -0.0202886 -0.707335 0.706878 7.45842e-05 2 53 237 32 
-0.0658909 -0.1208 0.0142717 0.0757576 0.068613 -0.994763 0 216 196 10 
0.0719242 -0.161214 0.0178015 -0.241744 0.241825 -0.939724 5 251 213 113 
-0.0506917 -0.141289 0.0036009 0.707153 0.707061 -0 3 83 108 175 
-0.0451471 -0.108598 0.0142717 1.44804e-05 -1.44791e-05 -1 0 216 196 10 
0.00854133 -0.191571 0.0142717 1.28385e-06 4.08099e-05 -1 0 216 196 10 
0.0207435 -0.194011 0.0142717 1.25862e-05 -3.78666e-05 -1 0 216 196 10 
-0.00706625 -0.150301 0.0232174 0.885771 0.450389 -0.112073 7 47 83 95 
0.045805 -0.201048 0.00352344 -0.70695 0.707263 4.77228e-06 2 53 237 32 
0.129551 -0.117303 -0.00835557 -0.706862 0.707352 -1.41803e-06 2 53 237 32 
0.00862819 -0.101034 0.0284666 -0.433778 0.838065 0.330885 18446744073709551615 0 0 0 
0.0161257 -0.167587 0.0305221 -0.241861 0.241889 -0.939677 5 251 213 113 
-0.00487328 -0.152812 0.0305626 0.876266 0.470504 -0.103848 7 47 83 95 
-0.040993 -0.0757141 0.00621107 -0.707078 0.707136 -2.97192e-06 4 207 51 147 
-0.0353855 -0.104937 0.0142717 -0 -0 -1 0 216 196 10 
0.0694438 -0.147415 0.0219908 -0.24183 0.241623 -0.939753 5 251 213 113 
0.048822 -0.149679 0.0426232 -0.807893 0.493814 0.321649 18446744073709551615 0 0 0 
-0.00123248 -0.035953 0.00123248 -0.707104 0.70711 1.32805e-05 4 207 51 147 
0.076734 -0.135198 0.0232592 -0.329248 -0.0123431 -0.944163 18446744073709551615 0 0 0 
0.0719918 -0.0744322 0.0142717 2.10208e-05 2.11864e-05 -1 0 216 196 10 
-0.0183029 -0.164727 0.0142717 -7.12109e-06 9.27708e-10 -1 0 216 196 10 
0.0549089 -0.0500281 0.0142717 -7.24041e-06 7.23976e-06 -1 0 216 196 10 
0.0935508 -0.0895708 0.013741 -0.587988 0.536754 -0.605116 18446744073709551615 0 0 0 
0.010941 -0.164116 0.0327492 -0.220425 0.304711 -0.926587 5 251 213 113 
0.113785 -0.128078 0.0108561 -0.301511 -0.123225 -0.945466 6 10 131 106 
-0.0500278 -0.111038 0.0142722 1.42432e-05 -3.25624e-05 -1 0 216 196 10 
0.105206 -0.085054 -0.00239587 -0.70703 -0.707184 1.86128e-06 1 31 190 46 
0.0865534 -0.155828 0.0154229 -0.286037 0.273914 -0.918234 5 251 213 113 
0.113541 -0.0936888 0.00650898 -0.613385 -0.534021 -0.581877 18446744073709551615 0 0 0 
-0.0231836 -0.143983 0.0142717 -3.56057e-06 2.06147e-10 -1 0 216 196 10 
-0.0776276 -0.114353 -0.0084015 0.993835 0.109684 -0.0161978 18446744073709551615 0 0 0 
0.0412444 -0.12276 0.0425778 0.531829 0.846269 0.0314123 18446744073709551615 0 0 0 
0.0573796 -0.156151 0.0228479 -0.241783 0.241919 -0.939689 5 251 213 113 
0.0268089 -0.126921 0.0612322 -0.290371 0.705863 0.646098 18446744073709551615 0 0 0 
0.0312234 -0.191384 0.0156515 0.640174 0.689783 -0.338196 7 47 83 95 
0.0862937 -0.0661416 0.00601282 -0.70714 -0.707074 3.80496e-06 1 31 190 46 
0.0301426 -0.167655 0.0268968 -0.241834 0.241811 -0.939704 5 251 213 113 
-0.00366057 -0.167167 0.0142717 -8.57554e-06 3.71172e-05 -1 0 216 196 10 
0.0211982 -0.0950165 0.0211982 -0.0793022 0.958945 0.272278 18446744073709551615 0 0 0 
0.0572823 -0.166972 0.0200882 -0.242159 0.242455 -0.939455 5 251 213 113 
0.111202 -0.0965382 0.00689697 -0.082189 -0.065484 -0.994463 6 10 131 106 
0.0183032 -0.0780928 0.0142717 -0 -0 -1 0 216 196 10 
0.125868 -0.108759 0.00684071 -0.234153 -0.328488 -0.915024 6 10 131 106 
