# .PCD v0.7 - Point Cloud Data file format
VERSION 0.7
FIELDS x y z
SIZE 4 4 4
TYPE F F F
COUNT 1 1 1
WIDTH 1397
HEIGHT 1
VIEWPOINT 0 0 0 1 0 0 0
POINTS 1397
DATA ascii
0.56843185 0.047711711 0.026075818
0.57020885 0.04819363 0.025694847
0.57558548 0.048376359 0.025530124
0.52089125 0.048411161 0.028051941
0.55091894 0.048592716 0.029252512
0.55393571 0.048819121 0.028931808
0.56599385 0.048918799 0.02684007
0.57219255 0.049998704 0.026012002
0.57705277 0.051284704 0.025851252
0.55359447 0.049847081 0.02914392
0.55864125 0.049657099 0.028544031
0.56385422 0.050020881 0.02789041
0.57023543 0.050811816 0.026482372
0.57384557 0.051396973 0.026442766
0.57780141 0.051543947 0.026571909
0.55629528 0.051706381 0.029039755
0.56161988 0.051444128 0.028344
0.5682416 0.051605593 0.027139636
0.57519931 0.052587613 0.027517563
0.55552447 0.053165618 0.029442174
0.55864447 0.053229216 0.028993687
0.56377721 0.053327326 0.028145313
0.56953257 0.053385381 0.027411303
0.571392 0.052771654 0.027471559
0.58648932 0.053380568 0.02743228
0.56666815 0.055053324 0.027997317
0.57245719 0.054368217 0.028709071
0.57509881 0.053620946 0.028670659
0.57765114 0.052930996 0.027983194
0.55594212 0.055705011 0.029826937
0.56104356 0.055458974 0.028862705
0.57060516 0.055670142 0.028910561
0.51390189 0.056737944 0.028317509
0.55694658 0.057197861 0.029887112
0.55846465 0.057545412 0.029636241
0.5599823 0.056839354 0.029303119
0.56369019 0.057168774 0.028695453
0.57984692 0.054739788 0.030495945
0.51146591 0.059329499 0.027274191
0.56667578 0.058435664 0.029253216
0.51110941 0.059206933 0.027467927
0.56124115 0.060727485 0.029801395
0.56400865 0.059766509 0.029372482
0.60277951 0.067013733 0.030606626
0.59318542 0.06823618 0.027718985
0.50081331 0.070477322 0.027309544
0.49701393 0.074329354 0.027839843
0.60210079 0.077298298 0.02772465
0.49000233 0.082417302 0.02710373
0.60960674 0.085024387 0.02768917
0.62593877 0.08813069 0.027010432
0.47835055 0.092529222 0.028401066
0.47516575 0.095905058 0.027272059
0.62083966 0.094243348 0.028057503
0.62517238 0.098273598 0.028369425
0.62670648 0.10053827 0.027240805
0.46670106 0.1059753 0.027961446
0.64302701 0.10599367 0.027716098
0.46062073 0.11140973 0.028449997
0.64263403 0.11324557 0.028449293
0.45657596 0.11684883 0.028252892
0.64378202 0.11569025 0.027270969
0.6454832 0.11798014 0.027302707
0.64743406 0.11964477 0.027376045
0.45102379 0.12948687 0.027554886
0.4536829 0.13283542 0.027509423
0.45618126 0.13476929 0.028170535
0.45863736 0.13710931 0.028406447
0.46100304 0.13886234 0.02797837
0.46530962 0.14306098 0.027904896
0.63093626 0.14304742 0.027095536
0.46938092 0.14778201 0.028324498
0.47493601 0.15255758 0.028762707
0.47845018 0.15530016 0.027359447
0.48035061 0.15694712 0.028805882
0.48278019 0.15933253 0.027234426
0.48012495 0.15611555 0.026736585
0.48881993 0.16539828 0.028805492
0.61027116 0.16742955 0.028483178
0.49172431 0.16811894 0.029472923
0.60734999 0.16912754 0.028484318
0.49980703 0.17490348 0.027526578
0.50582486 0.18137474 0.027925055
0.51202077 0.18675707 0.028978486
0.5091899 0.1839816 0.027148239
0.51618141 0.19049636 0.028537886
0.52293956 0.1972519 0.028585931
0.52807772 0.20151956 0.027333297
0.52713257 0.20016849 0.027559144
0.52871996 0.20226893 0.028608214
0.53301466 0.20598876 0.02801659
0.53282362 0.20531127 0.028027082
0.53601581 0.20931365 0.02763164
0.53833395 0.21117257 0.027089823
0.54077995 0.21410859 0.028322447
0.55063522 0.22194242 0.027800674
0.54086083 0.033397488 0.027677914
0.5452401 0.032662515 0.02743654
0.53848934 0.03492225 0.028061306
0.54155838 0.035648245 0.028486742
0.54324168 0.03505129 0.028251799
0.53209633 0.03821614 0.027939271
0.53504747 0.036727615 0.028177818
0.53946424 0.036809273 0.028816089
0.56153917 0.038017664 0.025790678
0.53248256 0.038816389 0.028666638
0.53741556 0.038101122 0.029276494
0.54059118 0.03887913 0.02934289
0.54267466 0.037770715 0.028885728
0.53551275 0.039619017 0.029940037
0.53851897 0.039955717 0.029889399
0.54376471 0.039965779 0.02899248
0.54829252 0.039236121 0.028128723
0.5537495 0.040716387 0.027546717
0.53513885 0.040382378 0.030405449
0.54030573 0.04036662 0.029663429
0.54169506 0.041060071 0.029514136
0.54799932 0.041389383 0.028403644
0.55952448 0.041305792 0.02690326
0.56498951 0.041947737 0.026021147
0.53775597 0.042300064 0.030656945
0.53973794 0.042861331 0.030314498
0.54293287 0.04279292 0.029546706
0.54549611 0.043066483 0.029074652
0.54627025 0.042694259 0.028850978
0.55307287 0.042809319 0.027980916
0.557971 0.042898584 0.027494153
0.54040617 0.044300076 0.030472862
0.54312319 0.044338934 0.029743563
0.54886246 0.044450421 0.028697304
0.55012238 0.043977622 0.028349055
0.55147314 0.044361442 0.028287362
0.55693424 0.043807261 0.027801614
0.52439612 0.044923559 0.029821049
0.54342055 0.04622275 0.030213306
0.54709494 0.046430696 0.029353764
0.55143929 0.046337288 0.028681733
0.55445182 0.045263257 0.028223738
0.55599713 0.045760013 0.028232735
0.55754864 0.046464752 0.028144775
0.56289846 0.045553856 0.027027214
0.568717 0.046375081 0.025863292
0.54121697 0.047088608 0.030979611
0.5469116 0.047546063 0.029601928
0.55125928 0.047046401 0.028803369
0.55555552 0.047415961 0.028492456
0.5585525 0.047922753 0.028268911
0.56169474 0.046978351 0.02767097
0.51951325 0.050148774 0.028043989
0.54034793 0.048192941 0.031501524
0.54596019 0.048139956 0.029974416
0.55369467 0.048711605 0.028816568
0.55492043 0.048182704 0.028602719
0.55862075 0.048606001 0.028328765
0.5607354 0.048903167 0.02810481
0.5661369 0.04893396 0.026818233
0.54334718 0.050122134 0.031142209
0.54538524 0.050551724 0.030876683
0.54852933 0.050128117 0.03004558
0.55450922 0.050777085 0.029137667
0.55653971 0.050382309 0.028713088
0.56110269 0.049965508 0.028210932
0.56337464 0.050101463 0.027823303
0.58253986 0.050539371 0.028361741
0.51932853 0.050786223 0.02951052
0.54609269 0.051986992 0.031072516
0.55111009 0.051886875 0.02990648
0.56020683 0.051859982 0.028515266
0.56363934 0.052376937 0.027941376
0.55301875 0.053440101 0.029962482
0.55456924 0.053868737 0.0297313
0.5561949 0.053911258 0.029432008
0.55863786 0.052981243 0.028939329
0.56464988 0.05316266 0.027836449
0.57102305 0.053763062 0.027844233
0.57550257 0.053651977 0.028024016
0.51711428 0.054019183 0.02962859
0.54956543 0.053740177 0.030863559
0.56190759 0.055072177 0.028580744
0.56632704 0.054984562 0.027974706
0.55988169 0.056055799 0.029126316
0.56316662 0.057112727 0.028698051
0.56890875 0.056434631 0.028963272
0.59233266 0.056153055 0.028093439
0.51141787 0.058948774 0.029186029
0.55406362 0.057810955 0.030700121
0.55788153 0.057072178 0.02964819
0.56109375 0.058105834 0.029133594
0.56428295 0.057278384 0.028673295
0.56737041 0.057341944 0.028826153
0.57116091 0.057266541 0.030598314
0.55118072 0.058229089 0.031567674
0.55632395 0.059588205 0.030431295
0.55902326 0.059170078 0.029714348
0.56161404 0.059272442 0.029353676
0.56431019 0.059002716 0.029097125
0.56676972 0.05915609 0.029637095
0.56820697 0.059115723 0.030156896
0.55831635 0.061128482 0.030364791
0.56224263 0.060091641 0.029570589
0.55544978 0.061851371 0.031140458
0.5586682 0.06134152 0.030363558
0.56505477 0.062479999 0.03076306
0.50675285 0.063953608 0.030036129
0.56239057 0.064003505 0.03083544
0.55962896 0.065069184 0.031336159
0.59065485 0.0629346 0.029716633
0.50400913 0.066800728 0.029033029
0.59226805 0.064859934 0.029131342
0.60105491 0.06626147 0.029642398
0.50251079 0.068800732 0.029308062
0.50328892 0.067578353 0.029377492
0.59211898 0.065711237 0.032563765
0.59773707 0.06934303 0.031458624
0.49383897 0.077404127 0.029624246
0.60531747 0.077709869 0.030091621
0.60730362 0.079065137 0.030333448
0.61085707 0.084370784 0.032482482
0.60748839 0.083689399 0.028999574
0.48775849 0.08419095 0.029877594
0.6091727 0.082403809 0.033070937
0.48204893 0.08937832 0.029491354
0.61611474 0.087034285 0.031374723
0.62925988 0.089300223 0.028825937
0.62470359 0.094801918 0.031874117
0.47033557 0.10225968 0.029143527
0.47028357 0.10232754 0.029777745
0.46711975 0.10547426 0.029172093
0.63504076 0.1047072 0.03168482
0.64783603 0.10852902 0.029930849
0.63924724 0.10832285 0.031262495
0.6438601 0.11331592 0.03431806
0.64021146 0.10970157 0.032279473
0.64076006 0.10997748 0.02952365
0.45201936 0.12221085 0.029761208
0.44937924 0.12790166 0.028134344
0.44383368 0.12898715 0.029169424
0.45446348 0.13234672 0.029844835
0.4477714 0.13936199 0.029878702
0.46327156 0.14140154 0.029059157
0.46592391 0.14352733 0.030228255
0.46710375 0.14495856 0.029659892
0.46807271 0.14555782 0.028523291
0.47161853 0.14950386 0.029842993
0.62377465 0.15325697 0.031985223
0.62134761 0.15547875 0.032907251
0.61879116 0.15792818 0.033443499
0.48236844 0.15860471 0.030272616
0.61673611 0.1604843 0.032027632
0.48463082 0.16129678 0.028987959
0.61429536 0.16259331 0.03035517
0.4859049 0.16202624 0.027811944
0.61204308 0.16474147 0.029595777
0.49095991 0.16683324 0.030187499
0.60989767 0.1668459 0.029256236
0.4916209 0.16749081 0.028933523
0.49405527 0.17018493 0.029337224
0.49640313 0.17135806 0.030807888
0.49730006 0.1727957 0.029881341
0.49937013 0.17434469 0.030103842
0.50217032 0.17721947 0.028770117
0.50365877 0.17870535 0.02956385
0.50416356 0.17958179 0.029119926
0.50882614 0.18356954 0.030214932
0.515311 0.18898539 0.02855633
0.5203042 0.19463541 0.029040249
0.52091396 0.19476759 0.028574927
0.52628058 0.19988747 0.02999033
0.53148931 0.20498413 0.029148182
0.53454906 0.20772499 0.029757246
0.53838277 0.21174182 0.030126451
0.54261553 0.21553566 0.029601373
0.5434494 0.21606234 0.028889531
0.54535091 0.21781668 0.028743258
0.5478332 0.21978329 0.029873971
0.5501774 0.22186977 0.029995024
0.53874969 0.036195323 0.02857805
0.53887981 0.036932725 0.0288486
0.54453152 0.036475591 0.02833578
0.54127324 0.038805 0.029201396
0.53251082 0.04053703 0.030337071
0.53271103 0.040276021 0.03021851
0.53430808 0.040092349 0.03022336
0.53689164 0.039870225 0.030038208
0.5299058 0.041393608 0.030157007
0.53539181 0.041688852 0.030943085
0.5393101 0.041894168 0.030127138
0.54254723 0.041256402 0.029305145
0.54372317 0.040797919 0.029026026
0.54821724 0.041246671 0.028263573
0.5272072 0.042837888 0.03067073
0.53964925 0.042123955 0.030148337
0.5338769 0.043488037 0.031856127
0.53636253 0.043789499 0.031372041
0.54071289 0.044395689 0.030391898
0.54590148 0.044738494 0.029223617
0.53766161 0.046027415 0.031634025
0.54438949 0.046597589 0.029999506
0.53525823 0.047513157 0.032661978
0.53705978 0.047264248 0.032161567
0.53807318 0.046910621 0.031820215
0.54177475 0.04665241 0.030678144
0.54814291 0.048684772 0.029605968
0.54933852 0.048363995 0.029316744
0.57640707 0.049745474 0.026941482
0.54606998 0.049825963 0.03037395
0.5498268 0.050199997 0.029672505
0.58268762 0.050915234 0.028857946
0.53939235 0.051059362 0.032395106
0.54249316 0.051037375 0.031650096
0.54719794 0.051943932 0.030743629
0.54737872 0.052208707 0.03078112
0.55131912 0.052554633 0.02998393
0.55200666 0.051848527 0.029731147
0.5785647 0.053161424 0.029134901
0.51799947 0.053749058 0.030763661
0.54923594 0.053859547 0.030899985
0.55882365 0.053821757 0.028901944
0.57615387 0.054456487 0.029176353
0.51784819 0.054184493 0.031044254
0.54367971 0.054358106 0.032252178
0.54668772 0.054355368 0.031620193
0.56161177 0.055781178 0.028680976
0.5470348 0.05590073 0.031910118
0.55180532 0.055758197 0.03074668
0.55306679 0.055620573 0.030360142
0.55701488 0.056446027 0.02968356
0.57317066 0.05651534 0.030296061
0.57362121 0.056402892 0.030446261
0.57594496 0.055972759 0.030464638
0.5595926 0.058717128 0.029491281
0.56240827 0.057671975 0.028817415
0.57010609 0.058506254 0.030627089
0.57168978 0.057774656 0.03107073
0.54795814 0.058245175 0.032326058
0.55202651 0.059705786 0.031539913
0.55475587 0.058763858 0.030601729
0.57134426 0.058958128 0.031741679
0.59279096 0.058930557 0.031588491
0.50972044 0.060741019 0.031350549
0.5559122 0.060832415 0.030735336
0.5601393 0.061303362 0.030013187
0.56226945 0.060477585 0.02961098
0.56569844 0.060837064 0.030077942
0.56767762 0.060506098 0.03079729
0.58576268 0.060300987 0.032620315
0.59545112 0.06088293 0.031472713
0.55257547 0.062491432 0.032201808
0.55443758 0.061627034 0.031327955
0.55698156 0.06302736 0.030948093
0.5647217 0.062166307 0.030523807
0.56575245 0.062116701 0.030730482
0.58545953 0.062012099 0.03281365
0.5878458 0.062245164 0.032369118
0.55680686 0.063455164 0.031222705
0.56024116 0.063434318 0.030618047
0.56176686 0.064374007 0.03092852
0.5632413 0.063108899 0.03064058
0.5979709 0.063010104 0.031044358
0.55973464 0.065175928 0.031365775
0.56276524 0.065317191 0.031488713
0.60047507 0.065307826 0.030662088
0.55365151 0.0660742 0.032820925
0.55672079 0.065664053 0.031923652
0.50129259 0.070353284 0.031482879
0.60491586 0.072518356 0.029141765
0.49691877 0.074662849 0.030462239
0.49914292 0.072985396 0.03267524
0.61325216 0.076940596 0.030098896
0.60305101 0.076302581 0.032595243
0.49331534 0.07830254 0.031521119
0.60287023 0.078217611 0.03330059
0.48815164 0.084312297 0.03103702
0.48540395 0.08678665 0.030113012
0.48603404 0.086699098 0.031034086
0.61559081 0.088470146 0.033458311
0.61900282 0.090944059 0.033154201
0.62936121 0.092735663 0.032270152
0.6225754 0.093467727 0.032735392
0.4788661 0.093773589 0.032266773
0.63349211 0.098770931 0.033927299
0.47306439 0.099595621 0.031393331
0.62656766 0.10042029 0.033421997
0.63219881 0.1040456 0.033123367
0.6347577 0.10546837 0.032644037
0.64480406 0.10706303 0.030430822
0.6472677 0.10804884 0.02946688
0.63728577 0.10682107 0.031501416
0.46186829 0.11063377 0.029850291
0.45819414 0.11612168 0.030854264
0.6442799 0.11587203 0.033427976
0.64783102 0.12109995 0.030517222
0.45144275 0.12361606 0.029759174
0.45346379 0.12416954 0.032372758
0.4521983 0.1269426 0.03169398
0.45026916 0.12850265 0.029973317
0.44453424 0.13192484 0.030913375
0.45524183 0.13212743 0.031478215
0.45918384 0.13310763 0.032427263
0.64213109 0.13268642 0.034206089
0.45674086 0.13405588 0.030994581
0.4612211 0.13513693 0.032478824
0.4635421 0.13720796 0.032757498
0.46611443 0.13914034 0.032772087
0.48100907 0.13951851 0.032761209
0.6368627 0.13959549 0.033462208
0.46043432 0.13822706 0.029688407
0.46321657 0.14020263 0.030810313
0.46835434 0.14119598 0.032742437
0.48331973 0.14147466 0.032733716
0.6301825 0.14592423 0.032727286
0.46967643 0.14670096 0.030861391
0.62792969 0.148286 0.032629199
0.47381973 0.14926827 0.031455819
0.47203767 0.14939034 0.029969152
0.47401518 0.15065791 0.030657059
0.47606394 0.15130708 0.031360742
0.62589908 0.15077932 0.031988457
0.478277 0.15437232 0.030308578
0.48057801 0.15552865 0.031200798
0.4831332 0.15724917 0.031587463
0.61735928 0.1592519 0.032984983
0.48474327 0.15995765 0.031332608
0.48670587 0.16292794 0.030395741
0.61358923 0.16353466 0.03094092
0.48898834 0.16414408 0.031269956
0.60752344 0.16922519 0.029872172
0.49763191 0.17268819 0.029653711
0.50162232 0.17585477 0.030785743
0.50373 0.17698605 0.031626217
0.50577563 0.18023638 0.030870417
0.50703162 0.18154433 0.030805284
0.50987262 0.18325464 0.031218395
0.51424074 0.18789545 0.03037861
0.5163362 0.18912038 0.031334314
0.51820576 0.19200249 0.030383183
0.52026898 0.1932302 0.031468242
0.52446336 0.19709569 0.031221624
0.52464515 0.19807762 0.030756542
0.56328028 0.20300157 0.033718038
0.53037524 0.20394775 0.030458605
0.53571934 0.20792961 0.031523645
0.53917515 0.21044023 0.032244734
0.56253326 0.20945626 0.033774618
0.54039615 0.21285965 0.031178039
0.54460859 0.21668059 0.030809365
0.54802507 0.21892773 0.03169943
0.5311895 0.040414274 0.029917948
0.53120238 0.041635402 0.030994643
0.5370152 0.041303769 0.030389527
0.52724808 0.043941043 0.03136437
0.52920574 0.042968843 0.031384081
0.53226823 0.043422632 0.031978514
0.52505964 0.045533963 0.031124471
0.52819699 0.044688482 0.032241102
0.53066999 0.044205524 0.032410391
0.53331953 0.044284731 0.032281872
0.54045266 0.044980858 0.03054316
0.52562976 0.045995969 0.03181937
0.5334354 0.045484345 0.032585047
0.52318561 0.047980253 0.031534184
0.53204626 0.047206834 0.033164281
0.53458256 0.047681805 0.032808363
0.52219367 0.049005546 0.031311512
0.52395266 0.049137525 0.032480959
0.53082466 0.048452374 0.033545427
0.53248554 0.048779875 0.03336671
0.5387314 0.048279718 0.031902745
0.54281783 0.048897281 0.030919388
0.54398084 0.048832174 0.030587962
0.52055639 0.050371446 0.031002004
0.52304482 0.051035367 0.032676801
0.53351921 0.050451737 0.033423681
0.53569061 0.049870349 0.032967392
0.53880304 0.050244585 0.032316756
0.54073429 0.050095528 0.031799287
0.54395616 0.051040292 0.031243607
0.52084792 0.05189918 0.032045342
0.52473289 0.051866561 0.033452764
0.53638172 0.051435649 0.033072688
0.53777951 0.051569894 0.032852635
0.54191548 0.052151341 0.032050267
0.54494798 0.051556159 0.031116644
0.58042419 0.052641932 0.029797889
0.5176174 0.054799799 0.031128461
0.53615373 0.052405231 0.033181317
0.54025286 0.053211 0.032605015
0.54514456 0.053070847 0.031521909
0.54745209 0.053700104 0.031175964
0.55317163 0.053305842 0.02977737
0.57486749 0.054739144 0.029396791
0.51840407 0.055167042 0.032087617
0.53307968 0.054693688 0.033635691
0.53749436 0.055324741 0.033357646
0.5430932 0.054317873 0.03229107
0.54621375 0.055280935 0.03189788
0.54827327 0.054148089 0.031162785
0.58744633 0.055371474 0.031656682
0.51571953 0.057084415 0.031624027
0.53572959 0.056589931 0.033642363
0.54071432 0.055438012 0.033000734
0.54188496 0.056123767 0.032994352
0.5456692 0.05622758 0.032181971
0.54993892 0.055984251 0.031161372
0.57430154 0.057339039 0.031282149
0.57770967 0.056535736 0.031644519
0.51291293 0.058774456 0.031648032
0.51370168 0.058627971 0.032209326
0.51551604 0.058214169 0.0327392
0.5294615 0.057149936 0.033757269
0.54493725 0.057977553 0.032767776
0.54792249 0.058409527 0.032345049
0.54996467 0.057492808 0.031617194
0.55250263 0.057715006 0.030977065
0.57980001 0.05689308 0.032544017
0.58102977 0.056607101 0.032625049
0.58997542 0.05752502 0.032000188
0.59115702 0.058432553 0.032108735
0.51926053 0.058814045 0.033769283
0.52546155 0.059570927 0.033767086
0.5418154 0.059198935 0.033449955
0.54491246 0.058801819 0.033012897
0.55503398 0.059508562 0.030644957
0.58377683 0.058370434 0.032972649
0.51825321 0.059655819 0.034039535
0.54696989 0.059938662 0.032864664
0.55115169 0.0605742 0.031992707
0.5575965 0.061749604 0.030506903
0.56031698 0.061611369 0.029949477
0.52348876 0.062346499 0.034335282
0.54448611 0.0621523 0.033582401
0.54919916 0.062171407 0.032910191
0.54953736 0.061647154 0.032671813
0.55296433 0.062520452 0.031981811
0.56820923 0.062527247 0.032023419
0.56902784 0.06212274 0.03230435
0.59663123 0.06279815 0.031563077
0.50781316 0.063260436 0.032066684
0.53140223 0.063418806 0.033779927
0.54840499 0.062920161 0.033162799
0.55241013 0.063669533 0.032469597
0.56751066 0.064215802 0.032411925
0.58684582 0.064060219 0.033069666
0.59601623 0.063819446 0.032209922
0.53388542 0.065441437 0.033966731
0.55538619 0.065214992 0.032072499
0.55878299 0.065697722 0.031573512
0.56421655 0.0658525 0.031835329
0.56615174 0.064584047 0.032082513
0.56729966 0.065046988 0.032633677
0.58923751 0.065811493 0.032916665
0.50524855 0.066671461 0.032740526
0.5374245 0.067204624 0.034135677
0.54395342 0.066489838 0.033790015
0.55010587 0.065923303 0.033394936
0.55780005 0.067320839 0.032332383
0.55829251 0.066866323 0.032091431
0.56362498 0.066645734 0.032096878
0.54485488 0.068558879 0.033690475
0.55260831 0.067676269 0.033402294
0.56075215 0.06827078 0.032534309
0.56121701 0.068932876 0.032750659
0.56326616 0.067699887 0.032470994
0.56645751 0.068253204 0.033245001
0.58676255 0.067981936 0.033847798
0.59165871 0.067438297 0.033268448
0.52238244 0.067726336 0.036496632
0.54043537 0.069043487 0.034012109
0.55533558 0.069506802 0.033425529
0.55783141 0.069073819 0.033047631
0.56116509 0.068957068 0.032765653
0.58901054 0.069715418 0.033959262
0.5944593 0.069136806 0.033054497
0.49992895 0.071663171 0.031368673
0.54272449 0.071084954 0.03388356
0.5473485 0.070670053 0.033745814
0.55506915 0.070583664 0.033654418
0.55804259 0.071297422 0.033646427
0.56436074 0.070552863 0.033494759
0.59137225 0.07148055 0.034013093
0.59682232 0.070809521 0.033372242
0.49910724 0.072997302 0.03261007
0.546229 0.072708905 0.033976465
0.55242753 0.071954854 0.033937875
0.58098882 0.072824642 0.034512307
0.59679079 0.073123753 0.033909723
0.59919357 0.072555453 0.033261187
0.53363723 0.073803127 0.035104562
0.55517977 0.073763415 0.034050226
0.6013912 0.074358322 0.032676242
0.53637409 0.075871304 0.034821358
0.54275918 0.075289845 0.034529429
0.5776214 0.075461395 0.034464676
0.58617443 0.076290309 0.034679431
0.57505655 0.07776653 0.034462709
0.55473644 0.078230642 0.034278356
0.58319616 0.078827694 0.034380902
0.60168844 0.078242034 0.033192057
0.59121436 0.079792626 0.034865245
0.59897572 0.080692798 0.03412579
0.60391349 0.080006666 0.033035513
0.55095118 0.081033014 0.034387592
0.56589478 0.081258297 0.034043647
0.58823931 0.082370669 0.034533765
0.60665971 0.081570551 0.033006392
0.61709052 0.081449293 0.032081291
0.56299037 0.083756082 0.034080591
0.56875753 0.082990289 0.034068733
0.60132557 0.082418077 0.033876479
0.60904646 0.083227336 0.033388469
0.54681462 0.083940774 0.034373004
0.58516055 0.084999837 0.034411699
0.59889084 0.084807761 0.034591623
0.61111671 0.084974386 0.033336062
0.61948311 0.085441448 0.030681461
0.54436719 0.086059473 0.034589861
0.55021536 0.085634992 0.034365576
0.55966949 0.08650247 0.034356486
0.5737592 0.086724922 0.034176581
0.5798384 0.085710831 0.034535721
0.59362239 0.085693464 0.034554224
0.60117233 0.086598985 0.034481626
0.56242269 0.088322617 0.034121554
0.56837761 0.087386832 0.033897635
0.576603 0.088437401 0.0342988
0.58235514 0.087515004 0.034468073
0.58676952 0.087785445 0.034380995
0.5960241 0.087442443 0.034467593
0.60390353 0.088047698 0.034491092
0.6130625 0.086796969 0.03334523
0.54692286 0.088078648 0.034218341
0.5563336 0.089203045 0.034423564
0.57041025 0.089482926 0.03389515
0.59812838 0.089356296 0.034405041
0.607566 0.088605031 0.0340719
0.61109757 0.089062616 0.033785813
0.48483241 0.090102918 0.033702925
0.54998165 0.089907855 0.034371711
0.56531912 0.090023972 0.033946715
0.57394749 0.090899304 0.033985373
0.57928765 0.090190277 0.034316644
0.60051423 0.091085941 0.034460772
0.61412174 0.090345368 0.033882815
0.55248517 0.092004791 0.034402505
0.56771064 0.091956057 0.033966973
0.58198357 0.09191817 0.034437492
0.59603298 0.091596022 0.034357216
0.60338354 0.092572168 0.034508415
0.60822725 0.091561727 0.034658179
0.47730309 0.094628707 0.03149499
0.55594331 0.093632601 0.034483988
0.57026994 0.093844488 0.034101263
0.59843314 0.093378335 0.034375448
0.60579318 0.09426561 0.034653582
0.61126548 0.093077116 0.034412496
0.61732626 0.093133964 0.033743732
0.56463057 0.094650172 0.034278084
0.57914233 0.094529018 0.034260105
0.59239465 0.094673701 0.034369942
0.61356694 0.094775841 0.034650665
0.62025946 0.094926663 0.033644967
0.62119097 0.095487587 0.033524882
0.6325466 0.094586059 0.031058962
0.47424984 0.097486548 0.030798292
0.56165934 0.097283572 0.03446269
0.58166754 0.096360348 0.034357861
0.59023255 0.096952103 0.034292039
0.59545684 0.096137792 0.034322567
0.61562729 0.096476227 0.034866214
0.62350899 0.097146526 0.033394121
0.47514635 0.097892798 0.032455843
0.56996942 0.098394983 0.034362435
0.58450335 0.098042205 0.034350816
0.59255522 0.09885788 0.034215912
0.62605584 0.098691933 0.033550631
0.56060141 0.098835468 0.034511663
0.56422824 0.099222943 0.034578122
0.57315451 0.099977605 0.034186203
0.57868373 0.09907905 0.034190021
0.58700711 0.099842265 0.03432323
0.59530979 0.10045569 0.034248073
0.6138435 0.098904699 0.034961328
0.61738938 0.09937612 0.034967449
0.62090063 0.099627532 0.034574389
0.56679589 0.10115943 0.034618858
0.57603359 0.10166878 0.034120418
0.58136719 0.1008494 0.034242291
0.5899623 0.10142356 0.034266867
0.61937916 0.10131346 0.034920406
0.62327868 0.10139452 0.034131683
0.62812644 0.10046804 0.033222549
0.56954849 0.10297897 0.034339685
0.57873183 0.10346283 0.034176454
0.5840559 0.10261095 0.034288246
0.59273905 0.10303952 0.034273345
0.59757578 0.10234089 0.034357399
0.62577862 0.10302399 0.034069613
0.63019001 0.10227379 0.033264723
0.63828123 0.10310622 0.032197725
0.56402993 0.10362954 0.034965862
0.57259786 0.10467744 0.034115911
0.60031646 0.10394479 0.034468427
0.4679535 0.10580184 0.031379435
0.56665885 0.10555643 0.034869775
0.59476775 0.1051048 0.034290645
0.59796977 0.10645619 0.034283277
0.60303909 0.10552876 0.034579348
0.61608815 0.10507981 0.034858927
0.62371433 0.10538942 0.034793776
0.64158815 0.10554753 0.031654079
0.46452308 0.10846254 0.030866388
0.46959227 0.10576747 0.032895595
0.569884 0.1073333 0.034607731
0.57530332 0.10651979 0.034241676
0.58410782 0.10696773 0.034340024
0.46256357 0.1103403 0.030421924
0.4679313 0.10840348 0.033506468
0.59514493 0.1092627 0.034307282
0.61589903 0.109535 0.034612879
0.62091804 0.10834678 0.034838986
0.63373822 0.10859365 0.033661459
0.46469045 0.11033713 0.032581143
0.57217497 0.10948005 0.03444989
0.60314578 0.10983863 0.034456942
0.61096239 0.11049867 0.034583613
0.46654335 0.11146427 0.034111034
0.58366507 0.11169051 0.03448946
0.59746933 0.11113839 0.034309976
0.60574043 0.11154044 0.034504373
0.63334894 0.11185285 0.034422204
0.62843603 0.11304493 0.03508636
0.64018637 0.11249224 0.033571932
0.46427372 0.1150481 0.033660896
0.46428081 0.1136954 0.033607114
0.57223278 0.1139435 0.034632746
0.61545372 0.11414679 0.034219548
0.64052469 0.11443891 0.033726502
0.64207387 0.11423671 0.033465229
0.46327353 0.11661418 0.033416271
0.46714449 0.11634219 0.034822989
0.57468921 0.11597513 0.034243975
0.61793244 0.11578371 0.034321167
0.64044911 0.11659567 0.033909447
0.65147597 0.11635677 0.031290691
0.45542532 0.11933119 0.030793624
0.45965445 0.11851587 0.032516465
0.46253347 0.11782 0.03324971
0.57665807 0.1181262 0.034131136
0.61571234 0.11834787 0.034242384
0.62040806 0.11740816 0.034451958
0.62837553 0.11754961 0.034798395
0.63570988 0.11774515 0.03487232
0.64263302 0.11833014 0.034139778
0.65482718 0.11766131 0.033396143
0.45937482 0.11921326 0.032599166
0.46206954 0.11933667 0.033375561
0.46502703 0.11873046 0.034029044
0.57992887 0.11963273 0.03431632
0.61825484 0.11998282 0.034305692
0.62350851 0.11862365 0.034567539
0.64496505 0.11988557 0.034130547
0.646474 0.11908564 0.033778898
0.6481179 0.11825293 0.033125509
0.4561654 0.1211748 0.032254368
0.46769154 0.12100461 0.034414455
0.57473993 0.12060707 0.034760799
0.58323836 0.12107091 0.034508836
0.62105727 0.12143359 0.034518398
0.64745152 0.12126843 0.034210276
0.6527617 0.12074001 0.034354635
0.45360979 0.12295354 0.031992815
0.46031171 0.12177776 0.033222921
0.58597684 0.12285457 0.034581281
0.60779166 0.12255517 0.034702014
0.61306292 0.12238608 0.034569848
0.45589882 0.12323545 0.032919776
0.45826584 0.12408598 0.033309199
0.46128953 0.12307384 0.03335838
0.46385938 0.12418906 0.0333676
0.64937639 0.12324964 0.034317307
0.65050513 0.12320323 0.034455795
0.46998608 0.12508182 0.033955365
0.5829311 0.12596637 0.034451049
0.5972386 0.12494392 0.034688015
0.64640629 0.12494393 0.03454306
0.45080462 0.12675405 0.030765286
0.45689142 0.12670924 0.033044256
0.46041894 0.12725089 0.033194367
0.46756241 0.12746632 0.033271436
0.47282726 0.12791832 0.033678938
0.60777044 0.1271486 0.034591861
0.45761696 0.12778085 0.033029649
0.45926514 0.12870105 0.033053532
0.46296832 0.12781879 0.033217698
0.47597063 0.12860939 0.034652524
0.47877264 0.12982553 0.035020594
0.64520764 0.12880285 0.034499783
0.45489708 0.12909365 0.032476913
0.46568111 0.13020773 0.033133954
0.46971154 0.12977433 0.033262927
0.47233716 0.12965234 0.033322264
0.64334589 0.12940319 0.034524564
0.4525122 0.13024177 0.030357184
0.45582151 0.13147724 0.031933349
0.45758745 0.13104741 0.032559965
0.459508 0.13151111 0.032709133
0.46140113 0.13064276 0.032962248
0.4621062 0.1317371 0.032980405
0.46745628 0.13196319 0.033280656
0.47174892 0.13102354 0.033478085
0.47660476 0.13140798 0.033654023
0.47967061 0.13157931 0.034402464
0.63596123 0.13120103 0.034689482
0.64367956 0.13117632 0.034228858
0.45374116 0.13172145 0.03001968
0.45979196 0.13334136 0.032515071
0.46200392 0.13221842 0.032999214
0.46418265 0.13236967 0.033130988
0.46803561 0.13220769 0.033341907
0.47836822 0.13340841 0.033399463
0.61058742 0.13336185 0.034523729
0.63832355 0.13291599 0.034390762
0.45777914 0.13426742 0.031284843
0.46320596 0.13445356 0.032920983
0.46624708 0.13463983 0.033205546
0.59680438 0.1345717 0.034727585
0.61814886 0.13386837 0.034259647
0.63331378 0.13438666 0.03460462
0.64145249 0.13398752 0.034021698
0.45898008 0.13496281 0.031613447
0.46086922 0.13580878 0.032290291
0.47269881 0.13614565 0.033250555
0.47666308 0.13569932 0.033188861
0.47736347 0.13640465 0.032922089
0.48033595 0.13579671 0.032901485
0.62861294 0.1354633 0.034585368
0.63551247 0.13646777 0.034334902
0.64005405 0.13521332 0.03411546
0.45909387 0.13629545 0.03112263
0.46220484 0.1377878 0.032080289
0.46373785 0.13646086 0.03268268
0.47174209 0.13665046 0.033284459
0.47352162 0.13709123 0.033176154
0.47441709 0.13686377 0.033101417
0.47890982 0.13739523 0.032806132
0.48276976 0.13710812 0.033081748
0.48487455 0.13783529 0.033287268
0.5761857 0.13761614 0.034527153
0.63092911 0.13738404 0.034594279
0.46119115 0.13832568 0.030709544
0.46543175 0.13928585 0.032332048
0.47066027 0.13856894 0.033276971
0.4749057 0.13806185 0.033118252
0.48510444 0.13924304 0.033214819
0.62165242 0.13853693 0.034290291
0.63309175 0.13935857 0.034282371
0.6369341 0.13904653 0.033811465
0.46369138 0.13969274 0.031564511
0.47303876 0.14053451 0.033278469
0.47680286 0.13988531 0.033092748
0.47721374 0.14001998 0.033094194
0.48249096 0.14022081 0.032765064
0.5733186 0.14098854 0.034830548
0.57812738 0.13996048 0.03423189
0.58200103 0.14088671 0.03440718
0.60476393 0.13992281 0.034713902
0.6131115 0.13984391 0.034333657
0.46552983 0.14147095 0.031489976
0.47551018 0.1425419 0.033350825
0.47957382 0.14201434 0.033036955
0.48186752 0.14164254 0.032732751
0.48736572 0.14133221 0.033319943
0.59071022 0.14111868 0.034686714
0.61554492 0.14160374 0.034400377
0.62343919 0.1411408 0.03445993
0.63464272 0.1414226 0.033523858
0.4658753 0.1426615 0.03091423
0.4677645 0.14248264 0.032045394
0.46948287 0.14258614 0.032485999
0.47133058 0.14299969 0.032886159
0.48070785 0.14321849 0.033009056
0.48173514 0.14386801 0.033020306
0.48572326 0.14353436 0.032935977
0.48968074 0.14341603 0.033584766
0.57598394 0.1425999 0.034355208
0.59360009 0.1428061 0.034756936
0.60977906 0.14359464 0.034162395
0.61786139 0.14346392 0.034519754
0.63231272 0.1435834 0.033491429
0.4695479 0.14515299 0.03158585
0.46992755 0.14459659 0.032227796
0.47766009 0.14531928 0.033321586
0.48812512 0.14561602 0.033034831
0.49207535 0.14549017 0.033691667
0.57871044 0.14441954 0.034305416
0.59636813 0.144582 0.03480614
0.60482609 0.14469492 0.034423541
0.6124481 0.1451052 0.034097608
0.62857795 0.14517109 0.033943605
0.46959999 0.14522114 0.031620614
0.47874698 0.1461464 0.033284858
0.48406285 0.1459024 0.033012375
0.60734582 0.14649369 0.034245543
0.61507285 0.1468243 0.034332354
0.62351453 0.14652225 0.034484025
0.47095025 0.14713827 0.030994033
0.47191495 0.14746913 0.031475402
0.4825592 0.14847323 0.033163678
0.48665193 0.14801118 0.033137251
0.49067166 0.14766763 0.033147439
0.49451306 0.14765887 0.034014355
0.60995144 0.1481649 0.034180827
0.61803317 0.1483113 0.034580085
0.62588024 0.14861313 0.033763364
0.47540343 0.14904886 0.032431874
0.47891283 0.14904812 0.033063501
0.48205981 0.14939457 0.033116776
0.48474443 0.14962192 0.033121649
0.48751092 0.14970905 0.03313271
0.49323899 0.14969078 0.033383537
0.56965059 0.14978488 0.034946989
0.48070911 0.15091693 0.03292156
0.48500437 0.1504705 0.033109955
0.60739881 0.15125212 0.034234639
0.61233366 0.15011252 0.034306571
0.47632197 0.15174744 0.031308088
0.47868887 0.15253548 0.031682331
0.48307648 0.15287401 0.032853741
0.49072745 0.15188719 0.033183184
0.49678326 0.15270497 0.033447415
0.58106351 0.1516037 0.034353688
0.59526432 0.15265027 0.034377519
0.61525172 0.15158793 0.034452181
0.62317461 0.15194169 0.033882443
0.47921306 0.15298596 0.031670947
0.48102701 0.15330118 0.032403495
0.48352873 0.1537921 0.032785561
0.49166682 0.15429381 0.033141177
0.49453485 0.15424459 0.03331852
0.48005751 0.15478246 0.031346809
0.48111612 0.15512657 0.031626333
0.48401043 0.15491793 0.032742504
0.4854126 0.15488781 0.033037595
0.48860154 0.15474793 0.03324125
0.49483052 0.15534954 0.033334054
0.49999318 0.15552622 0.033545829
0.50416195 0.15549707 0.034161929
0.56884938 0.15522583 0.034441341
0.62057978 0.15502797 0.033848144
0.48291773 0.15665847 0.031845096
0.49199003 0.15644667 0.033313073
0.56255078 0.15746982 0.034961656
0.57126999 0.15723577 0.034214765
0.61557418 0.15635574 0.034321088
0.48524258 0.15762472 0.032432497
0.48735067 0.15790786 0.033007536
0.49027401 0.15883714 0.033124924
0.49447349 0.15833096 0.033468582
0.49866238 0.15846439 0.033516038
0.50325984 0.15848549 0.033587925
0.57454103 0.15870355 0.034068584
0.58382207 0.15848672 0.034099575
0.48590171 0.15914916 0.032077305
0.5776881 0.16030583 0.03402546
0.61263657 0.16015606 0.034261212
0.48701936 0.16111472 0.03202926
0.48820281 0.16118917 0.032302789
0.49253306 0.16084094 0.033223491
0.58615744 0.16067204 0.034209773
0.49059215 0.16315487 0.0323333
0.49487182 0.16284871 0.033403832
0.50575036 0.16321212 0.033482622
0.57100177 0.16250016 0.034065254
0.5802263 0.16239321 0.033934835
0.49726415 0.16483079 0.033394437
0.58043402 0.16427945 0.03398025
0.58348387 0.16388196 0.034011085
0.60133761 0.1636505 0.034559872
0.60975277 0.16379361 0.034070216
0.4901571 0.16546634 0.030639468
0.49123079 0.16515237 0.032015286
0.49306807 0.16513115 0.032516133
0.50504708 0.16608073 0.033266399
0.49531618 0.16714856 0.032512888
0.49782124 0.16665269 0.033089831
0.49829942 0.16703275 0.033102952
0.49957201 0.16679941 0.033236217
0.50171906 0.16731243 0.033276785
0.50301129 0.16673914 0.033256304
0.57978159 0.1679631 0.034136564
0.49429819 0.16866161 0.031580277
0.49756321 0.16922128 0.032520492
0.50084245 0.16936374 0.033076379
0.50619537 0.16832568 0.033275086
0.5294385 0.16877656 0.034329563
0.56059229 0.16854055 0.033825416
0.58322221 0.16934559 0.03420788
0.49773273 0.17018227 0.032350551
0.50305879 0.17077547 0.032984842
0.50583583 0.17095055 0.033188011
0.50845015 0.17037435 0.03331079
0.51718801 0.170206 0.033497155
0.52756715 0.17097875 0.033914629
0.53182817 0.17065391 0.034100544
0.53790373 0.17119341 0.034148272
0.56413049 0.16996881 0.033957679
0.49992529 0.17118822 0.032572266
0.50414443 0.17215237 0.033050645
0.50799692 0.17156979 0.033247586
0.51083356 0.17236221 0.033287458
0.51709116 0.17191686 0.033250168
0.58604413 0.17122141 0.034222055
0.59823579 0.17257971 0.034167506
0.6049552 0.17117798 0.032200951
0.49976376 0.17312722 0.031513955
0.50255722 0.1730321 0.032591663
0.51685655 0.17393406 0.033147212
0.52995062 0.17291424 0.033848554
0.5359149 0.17358005 0.033760693
0.55035442 0.17398527 0.033779718
0.55246234 0.17271754 0.033784658
0.51372051 0.17477909 0.033218667
0.53238565 0.17488067 0.033693764
0.53662014 0.17449629 0.033754967
0.60064435 0.17479473 0.032882277
0.51133043 0.17673397 0.03329302
0.51551843 0.17600413 0.033105761
0.51964974 0.17593682 0.033261906
0.53901899 0.1764863 0.033716567
0.59504241 0.17644033 0.033965632
0.50180173 0.17637621 0.030377913
0.50464684 0.17771438 0.031722918
0.51831466 0.1782781 0.033175033
0.52151513 0.17813186 0.033323843
0.58496737 0.17754714 0.033903476
0.59774667 0.17808512 0.032634985
0.50906426 0.17951603 0.032731548
0.51371711 0.17870672 0.033215351
0.51972407 0.17983302 0.033298373
0.52434283 0.17959306 0.033405323
0.53710729 0.1788564 0.033688582
0.56439286 0.17969243 0.033892449
0.57924521 0.17913127 0.034241129
0.58835834 0.17910367 0.033990264
0.50603253 0.17987597 0.031333815
0.51984006 0.18046774 0.033331219
0.52801389 0.18134432 0.033386242
0.52966708 0.18088788 0.033440769
0.5623064 0.18088703 0.03384544
0.58201492 0.18116374 0.034135435
0.5074361 0.18175191 0.030978931
0.50905567 0.18194969 0.031824544
0.5117656 0.18272318 0.032547094
0.54248703 0.18258567 0.033727735
0.56552154 0.18185629 0.033799045
0.57617533 0.1828025 0.034184523
0.58562863 0.1824218 0.0339122
0.5941993 0.1824009 0.03223899
0.51036006 0.18301424 0.031892274
0.51747715 0.18317591 0.033231847
0.52448475 0.1835321 0.033409998
0.53083605 0.18368322 0.033442389
0.54292691 0.18396716 0.033713195
0.56345695 0.18304124 0.033873558
0.58864427 0.18415613 0.033653013
0.51185036 0.18485489 0.031298857
0.51229262 0.185159 0.031356528
0.51484084 0.1853718 0.032500826
0.52324653 0.18602709 0.033543475
0.53415054 0.18562931 0.033613842
0.56930107 0.18530139 0.033813614
0.51442856 0.18616863 0.031946097
0.51484734 0.18710284 0.031571433
0.5167712 0.18699418 0.032639738
0.53842407 0.18685411 0.033624392
0.54076713 0.18627606 0.033643041
0.54880351 0.18652341 0.033854261
0.57239079 0.18711379 0.033929221
0.58192152 0.18670674 0.034084618
0.59072894 0.18604667 0.03151381
0.51332742 0.18683781 0.031165207
0.52696937 0.18775667 0.033602834
0.5846203 0.18922736 0.033127658
0.51742333 0.18905768 0.031673286
0.51853627 0.19016331 0.031995174
0.51971722 0.19110028 0.032017853
0.52086639 0.19101498 0.032550123
0.53382379 0.19157644 0.033830766
0.56906772 0.19105716 0.033806402
0.57862753 0.19072869 0.033926606
0.58167994 0.19174923 0.033456359
0.52185243 0.19323297 0.032329522
0.52355295 0.19283143 0.033056621
0.54807377 0.19276439 0.033934042
0.58173198 0.19250709 0.033066157
0.52571231 0.19450469 0.033051252
0.52686709 0.19375528 0.033478454
0.53019494 0.19460462 0.033706374
0.55100757 0.19493166 0.033751067
0.555287 0.19366392 0.03375046
0.58235699 0.1934225 0.031619314
0.52322406 0.19577923 0.031677324
0.52545232 0.19607985 0.032337222
0.52864408 0.19613889 0.033318985
0.54093432 0.19513148 0.033957262
0.5564611 0.19592035 0.033697214
0.57025099 0.19583035 0.033933867
0.57904571 0.19525436 0.033210482
0.5267114 0.1971357 0.032346036
0.54389089 0.19751155 0.033850592
0.55424166 0.19683959 0.033681031
0.52749336 0.19902727 0.032186314
0.52876753 0.19933601 0.032561149
0.53244597 0.19849697 0.033911504
0.55777854 0.1984811 0.033819597
0.55817366 0.19907492 0.033773083
0.56082147 0.19884622 0.033819318
0.5675016 0.1981163 0.033972472
0.5350101 0.20112267 0.033892184
0.54471487 0.20015982 0.033787541
0.5616886 0.20046274 0.033776805
0.52842379 0.20117599 0.031318013
0.54587257 0.20233051 0.03384079
0.5599001 0.20231467 0.033791423
0.52932394 0.20207217 0.031448018
0.53668344 0.20342848 0.033478435
0.53871161 0.20274708 0.033696681
0.54330701 0.2036254 0.033833336
0.56316268 0.20334542 0.033687104
0.53234243 0.20516153 0.031380042
0.53271031 0.20407523 0.03243212
0.54709697 0.20512904 0.033909213
0.55305225 0.2051913 0.033948094
0.55770624 0.2042833 0.033759456
0.5611003 0.20466353 0.033725441
0.56727105 0.20423757 0.033675298
0.53591043 0.20619871 0.032605156
0.55790961 0.20641261 0.033677176
0.56034201 0.20669508 0.033644326
0.56221884 0.20674266 0.033644866
0.57028705 0.20622623 0.032912232
0.53922862 0.20823483 0.033226218
0.55038488 0.20704205 0.033941872
0.55476308 0.20836681 0.033741783
0.53594363 0.20805275 0.031534281
0.53646588 0.20890185 0.031108923
0.55325145 0.20933567 0.033822451
0.53839117 0.21013992 0.031829607
0.55692166 0.21081434 0.033737671
0.53999954 0.21171702 0.032114048
0.54245079 0.21284495 0.032732785
0.54141259 0.21379903 0.031368699
0.55939984 0.21329322 0.033991557
0.5423097 0.21401896 0.032029852
0.54618388 0.21522862 0.033132214
0.55079412 0.21961778 0.032862622
0.55054843 0.22053237 0.032274529
0.5349865 0.043578364 0.031521283
0.52819264 0.045919664 0.032813542
0.53326136 0.046631888 0.032845229
0.53558081 0.046541363 0.032286853
0.53741777 0.045822535 0.031555284
0.52523679 0.047692325 0.032614641
0.52886516 0.047204196 0.033300802
0.53132242 0.046800695 0.033140168
0.5398761 0.047801755 0.031462174
0.52628982 0.049352374 0.03349404
0.5292626 0.048427083 0.033514049
0.53566551 0.048578743 0.032734651
0.54233772 0.049821578 0.031262394
0.52384865 0.050816614 0.032941584
0.52724403 0.050213613 0.033688873
0.53037369 0.049925745 0.033683199
0.53811824 0.050451633 0.032531925
0.53891975 0.049931243 0.032167677
0.58253175 0.051946752 0.031312373
0.52143341 0.052030109 0.032317035
0.52722818 0.052395672 0.033793423
0.52993959 0.051973745 0.033831749
0.53150111 0.0521181 0.033720944
0.53354651 0.051116843 0.033425607
0.54059988 0.052486025 0.032342389
0.52432501 0.05315505 0.03351501
0.52760458 0.053247683 0.033822551
0.53061813 0.052690212 0.033815987
0.53152609 0.05327661 0.033755228
0.53467339 0.053227726 0.033458717
0.53630233 0.053065326 0.033173855
0.53698546 0.053539302 0.033120491
0.53886491 0.053743705 0.032894727
0.54232848 0.053370111 0.032173712
0.58094198 0.054682337 0.031977896
0.58488971 0.053817585 0.032575198
0.5213809 0.055613119 0.033197075
0.52254283 0.055003691 0.033353951
0.52461654 0.054149132 0.03365577
0.52717376 0.054684162 0.033898845
0.52946162 0.054950584 0.033732072
0.53260618 0.054287661 0.033657618
0.5357759 0.055384051 0.033523977
0.53879535 0.055078335 0.033119883
0.58065265 0.055266201 0.032253552
0.5194087 0.056862067 0.033165067
0.52209741 0.056299634 0.033515349
0.52490312 0.055850618 0.033715691
0.52857876 0.055544224 0.033767655
0.52997118 0.056501932 0.033758741
0.53371888 0.056445051 0.033678658
0.53446299 0.055878848 0.033620093
0.53998262 0.055881545 0.033145253
0.54409909 0.056503072 0.032542299
0.57232958 0.057732392 0.031041782
0.57693106 0.057462312 0.032214191
0.58659297 0.055919599 0.032453615
0.51596493 0.057859909 0.032588165
0.51678389 0.058477059 0.033070739
0.5231151 0.05753883 0.033731516
0.5242306 0.058357228 0.033727728
0.52598459 0.057359613 0.03376013
0.53060621 0.057914872 0.033687759
0.5348472 0.058491807 0.033736527
0.53690374 0.057738412 0.033598311
0.53941053 0.058299404 0.033581927
0.54119658 0.05754824 0.033247963
0.54620409 0.058242425 0.032556005
0.54815435 0.058627583 0.032307651
0.5514192 0.05803572 0.031342689
0.55698699 0.059045319 0.030046131
0.57853377 0.057541154 0.03270109
0.58650571 0.058517881 0.033117041
0.51666558 0.059489276 0.033651374
0.52774215 0.059307206 0.033706315
0.53243792 0.058510572 0.033743497
0.53285438 0.058900546 0.033769216
0.53805339 0.059502598 0.033797726
0.53874987 0.059589736 0.033790726
0.54381841 0.059072379 0.033168864
0.54582566 0.059585899 0.032984309
0.57277399 0.059550229 0.032683033
0.57453179 0.059373025 0.033128671
0.57605702 0.059090227 0.033288676
0.57628059 0.059922364 0.033671711
0.57938755 0.058752678 0.033305861
0.58101875 0.059632517 0.033582855
0.5853526 0.058843285 0.033235278
0.51105309 0.061945315 0.033620212
0.51481044 0.060837023 0.03396203
0.52110273 0.060036745 0.034032784
0.52577645 0.060411591 0.033874229
0.52910286 0.061401732 0.033688471
0.53046715 0.061138809 0.033611208
0.53172851 0.059995919 0.033750348
0.53290397 0.061257489 0.033742201
0.53523076 0.060773369 0.033905581
0.53586727 0.060714923 0.03389027
0.53942275 0.060223587 0.033817556
0.54248196 0.060675684 0.033549741
0.54630208 0.06158708 0.03321014
0.56993127 0.060888682 0.031899206
0.57262409 0.060974937 0.033445004
0.57657808 0.060788307 0.033999488
0.57833236 0.061142836 0.034095954
0.58201462 0.060485676 0.033411525
0.58785111 0.060796928 0.032953311
0.59153253 0.061019432 0.032625005
0.51054543 0.062920131 0.03395056
0.5126794 0.061864227 0.033976607
0.5167526 0.062068038 0.034848887
0.51794583 0.06160311 0.034722343
0.5229699 0.061673116 0.034208067
0.52632105 0.062195543 0.03391245
0.52861351 0.061590262 0.033720355
0.53002077 0.062614873 0.033661187
0.53654486 0.061565544 0.033933114
0.53748697 0.062928006 0.034021709
0.53965604 0.062533148 0.033922158
0.54244006 0.062649056 0.033852957
0.54588187 0.062051222 0.033389699
0.54750979 0.062716365 0.033227168
0.55486709 0.062096763 0.031225102
0.56710351 0.063463472 0.031914514
0.57022202 0.061827403 0.032646436
0.57417518 0.062664449 0.034189437
0.57555407 0.062636271 0.034313668
0.57911927 0.062615469 0.034305055
0.58459061 0.062255554 0.033286672
0.59037066 0.063007265 0.032927979
0.50846153 0.063817188 0.033364136
0.51748955 0.063552134 0.035399068
0.51994354 0.06340871 0.035167959
0.52445304 0.063783899 0.034470063
0.52578455 0.063715823 0.034307849
0.52857548 0.063816562 0.033929508
0.53321797 0.063306443 0.033805188
0.54204607 0.064285919 0.033826888
0.54443741 0.064248875 0.033749461
0.54880095 0.063581258 0.033228282
0.55063671 0.063776955 0.032885142
0.5720678 0.063391313 0.033983551
0.57438755 0.063039742 0.034340162
0.5824964 0.064386293 0.03407697
0.58598864 0.063880801 0.033472605
0.52754021 0.065273389 0.034395602
0.52840352 0.065718047 0.034339271
0.5303129 0.064779975 0.03401278
0.53551179 0.065547466 0.03405888
0.53769112 0.064975388 0.034073088
0.54078048 0.065140329 0.033992112
0.54700053 0.065619461 0.033594731
0.54860252 0.064851061 0.033344146
0.55153584 0.065627545 0.033106226
0.5537402 0.064883888 0.032396052
0.55871809 0.066398352 0.031838719
0.56922847 0.065024272 0.033417378
0.57173651 0.065275058 0.034257725
0.57306439 0.065390222 0.034427978
0.57665926 0.064832211 0.034734465
0.58004284 0.065481938 0.03448946
0.5884093 0.065605059 0.033344537
0.59302807 0.064972989 0.032972705
0.51071233 0.06599462 0.035782807
0.5228067 0.065748468 0.035525084
0.52503544 0.066676982 0.035442028
0.52625883 0.066834606 0.035014093
0.53108937 0.066144004 0.034128994
0.53469467 0.066327274 0.034070853
0.53933436 0.066907801 0.034054689
0.54241031 0.066858247 0.033781614
0.54414535 0.066923633 0.033698384
0.54555839 0.066410735 0.033656709
0.5468775 0.066146694 0.033651985
0.5496639 0.067046739 0.033503599
0.56625706 0.066408336 0.032768041
0.56737775 0.067060858 0.03328513
0.57016033 0.066979498 0.034134112
0.57411116 0.067173302 0.034573611
0.5745548 0.067325562 0.034563743
0.57985979 0.0664993 0.03465341
0.58466184 0.066133767 0.033981442
0.50313932 0.068841584 0.032251433
0.50522369 0.06820292 0.034062091
0.52630168 0.067716233 0.035357345
0.53163153 0.067764968 0.034414891
0.53359127 0.068234563 0.034296636
0.53624892 0.068473227 0.034176551
0.53801435 0.067753337 0.03406563
0.5425033 0.067962185 0.033832818
0.54505634 0.067896068 0.033652708
0.5469439 0.068374321 0.033665497
0.54936707 0.068030462 0.033626888
0.55381191 0.068022072 0.03323495
0.5562861 0.068038881 0.032824915
0.56505036 0.068609804 0.033066813
0.5672648 0.068495765 0.033487648
0.56997454 0.067922041 0.034164105
0.58201665 0.068383716 0.034701388
0.58765209 0.067976534 0.033803996
0.59082353 0.06760855 0.03339557
0.60028154 0.069590099 0.03230378
0.52894092 0.069392256 0.03525145
0.53009307 0.068788178 0.034864828
0.53325129 0.069995403 0.034599163
0.53454542 0.069489971 0.034411363
0.53857464 0.070335589 0.034064967
0.54047966 0.069434486 0.033956088
0.54157871 0.069613501 0.033912811
0.54359871 0.070102662 0.033782579
0.5500139 0.070023261 0.033837222
0.5516299 0.070311867 0.033797443
0.5533523 0.069157317 0.033545807
0.55637169 0.070228226 0.033470985
0.56195629 0.07002607 0.033076797
0.56427944 0.069942407 0.033328731
0.56790835 0.070401728 0.033952631
0.5704391 0.069774285 0.034268741
0.57216865 0.070310682 0.034472369
0.5768764 0.069338404 0.034575336
0.58441812 0.070113525 0.034676146
0.52623338 0.069777191 0.0364579
0.53126013 0.070937902 0.03514269
0.53727543 0.071065448 0.034253847
0.54292607 0.07157471 0.033874489
0.5485357 0.071602881 0.033855602
0.5518145 0.070679106 0.033860479
0.55860317 0.071436264 0.033566788
0.56226856 0.071023941 0.033412334
0.56340188 0.071108289 0.033472423
0.56801546 0.070806399 0.033978473
0.56883013 0.071586244 0.034047093
0.57386184 0.07133121 0.034499135
0.57634777 0.071573466 0.034534089
0.57906222 0.070825711 0.034612503
0.58205932 0.070786908 0.034675743
0.58699501 0.071847908 0.034561139
0.50006139 0.073070437 0.033985864
0.50183648 0.072323531 0.034517571
0.53134841 0.071655765 0.035388045
