0.0819227 0.152571 0.135806 0.584134 -0.0468201 -0.810306
0.185088 0.00841522 0.117672 0 -1 0
0.0797808 0.152416 0.13457 0.846625 -0.0113287 -0.53207
0.224026 0.152906 0.156771 -1.64972e-05 0.000483132 -1
0.214544 0.152906 0.156772 0.00071329 -0.000499959 -1
0.15231 0.132401 0.172753 -0.938466 0.0485821 -0.341938
0.0792646 0.0261047 0.123066 -0.974939 0.00275057 0.222455
0.205061 0.152906 0.156772 -0.00110497 -0.000241604 -0.999999
0.20269 0.152906 0.156772 -6.76954e-05 -0.000313418 -1
0.159964 0.158415 0.112568 0.000696699 -1 1.65039e-05
0.199134 0.152906 0.156772 -5.92467e-08 0.000241371 -1
0.229265 0.128434 0.112088 -1 -2.25937e-08 0.000253004
0.0793272 0.158143 0.123741 -0.915708 0.401797 0.00611299
0.157648 0.0296329 0.156772 -2.8104e-06 -7.13704e-05 -1
0.193208 0.152906 0.156772 -0.00110742 -5.35115e-07 -0.999999
0.175822 0.153106 0.162905 -0.372925 -0.900145 -0.225092
0.174182 0.152389 0.168643 -0.40384 -0.886712 -0.225068
0.171471 0.152221 0.17397 -0.424221 -0.872801 -0.241361
0.163988 0.0597619 0.183187 0.318535 0.425966 -0.846811
0.169036 0.152181 0.178322 -0.407121 -0.880172 -0.24403
0.12225 0.0560496 0.15909 0.495996 0.387443 -0.777095
0.156921 0.152201 0.179107 0.431979 -0.210222 -0.877041
0.12729 0.0232112 0.1442 0.641244 -0.0046799 -0.767323
0.150231 0.152597 0.166584 0.611305 -0.125543 -0.781374
0.0792651 0.0895025 0.126795 -1 0 -0.000157604
0.22632 0.158415 0.124417 -0.261117 -0.965305 -0.00218584
0.199067 0.158415 0.109013 -0.000346861 -1 0
0.118399 0.0922487 0.156866 0.5001 9.51153e-05 -0.865968
0.16008 0.140283 0.180931 0.499742 -6.71718e-05 -0.866175
0.147906 0.152639 0.165242 0.501138 -0.0212406 -0.865106
0.138394 0.152588 0.166856 0.212441 -0.11247 -0.97068
0.177866 0.0683601 0.186736 -0.496963 0.737565 -0.457193
0.133695 0.152624 0.165698 0.419735 0.000182694 -0.907646
0.229265 0.152953 0.141277 -1 0 0
0.208546 0.158415 0.141006 0.000491044 -1 -0.000483086
0.126881 0.15229 0.161764 0.500142 0.000272662 -0.865943
0.163356 0.056608 0.174494 -0.298268 0.938381 -0.174579
0.12225 0.152265 0.15909 0.499999 -7.65727e-05 -0.866026
0.148316 0.00841522 0.10664 -2.18508e-08 -1 2.11625e-05
0.183663 0.158415 0.120862 -0.000483092 -1 -2.3745e-07
0.115021 0.152965 0.154916 0.50742 -0.0535004 -0.860036
0.226397 0.155277 0.156771 -0.158159 -0.181716 -0.970549
0.224026 0.155277 0.156772 -0.0128627 -0.201787 -0.979345
0.216914 0.155277 0.156772 0.0177619 -0.201143 -0.979401
0.148011 0.157894 0.164973 0.456097 -0.606878 -0.650903
0.226397 0.0746755 0.156772 -0.362618 -0.0235641 -0.93164
0.214544 0.155277 0.156772 -0.0110581 -0.200933 -0.979543
0.226764 0.00841522 0.0968343 -0.309817 0.927921 0.207308
0.10664 0.00841522 0.129929 0.134742 0.923014 -0.360401
0.207432 0.155277 0.156772 -0.0266531 -0.199242 -0.979588
0.20269 0.155277 0.156772 -0.0127258 -0.20089 -0.979531
0.115019 0.0534148 0.142228 -0.000132356 -1 6.67092e-05
0.199134 0.155277 0.156772 0.00235674 -0.20185 -0.979414
0.12225 0.119381 0.15909 0.500336 0.000300017 -0.865832
0.22632 0.158415 0.117307 -0.257181 -0.966359 0.00296975
0.195578 0.155277 0.156772 0.0183418 -0.201325 -0.979353
0.226397 0.0391154 0.156772 -0.136796 0.00456195 -0.990589
0.0975263 0.0534527 0.144743 0.349973 0.702419 -0.61978
0.163025 0.00841522 0.102963 2.31569e-09 -1 7.17401e-06
0.121349 0.00841522 0.0992858 -0.13603 -0.987315 -0.0818839
0.193208 0.155277 0.156772 0.00315225 -0.201416 -0.979501
0.150231 0.0721583 0.166584 0.604669 -0.012497 -0.796379
0.172301 0.147509 0.18631 -0.0643144 -0.682944 -0.727634
0.183725 0.155277 0.156772 -0.00448156 -0.227201 -0.973837
0.133607 0.00841522 0.136058 -1.04381e-08 -1 -2.01873e-05
0.182097 0.0615573 0.162277 -0.460474 0.846376 -0.267603
0.122467 0.0539072 0.159215 0.464361 0.514221 -0.721072
0.0971635 0.158415 0.124417 -0.00012285 -1 1.4837e-08
0.22047 0.137497 0.156772 -0.000491401 -1.703e-07 -1
0.175471 0.154835 0.157249 -0.196713 -0.618176 -0.761028
0.229265 0.11559 0.11559 -1 -0.00032288 6.98024e-05
0.172413 0.155022 0.159996 -0.319393 -0.890243 -0.324738
0.0880296 0.155836 0.139333 0.497372 -0.266644 -0.825543
0.160084 0.154773 0.180805 0.452676 -0.469431 -0.758102
0.0971635 0.158415 0.117307 -0.00012285 -1 -0.000483384
0.157416 0.155723 0.178246 0.12406 -0.790325 -0.599996
0.152286 0.154647 0.176431 0.718461 -0.0871573 -0.690085
0.199067 0.158415 0.138636 0.000491229 -1 -0.000285447
0.150231 0.154962 0.166584 0.498666 -0.201185 -0.843123
0.208377 0.00841522 0.0968343 -7.70917e-06 -1 -1.72181e-05
0.204179 0.121194 0.168358 -0.826967 -0.294389 -0.479021
0.0792647 0.140598 0.111911 -1 0 0
0.199067 0.158415 0.150485 0 -1 0
0.14558 0.155048 0.163899 0.354679 -0.219856 -0.908772
0.178145 0.0950468 0.191361 0.499965 -0.0001975 -0.866046
0.142069 0.155092 0.162548 -0.178048 -0.551612 -0.814876
0.183957 0.150653 0.157847 -0.322861 -0.636092 -0.700819
0.187217 0.158415 0.126787 0.00024558 -1 0
0.138394 0.154954 0.166856 0.154016 -0.104564 -0.98252
0.208377 0.0084151 0.102963 1.43457e-05 -1 -1.01273e-05
0.111543 0.00841522 0.109092 -9.85884e-06 -1 9.78164e-06
0.126941 0.155436 0.161798 0.471833 -0.137222 -0.870944
0.124368 0.155163 0.160312 0.458367 -0.0934899 -0.883832
0.148115 0.158415 0.14456 0.000552696 -1 0.000173244
0.122323 0.155371 0.159132 0.419087 -0.20587 -0.884298
0.229265 0.078228 0.10625 -1 -0.000232222 -0.000709489
0.118205 0.155293 0.156754 0.539344 -0.255898 -0.802262
0.18726 0.135186 0.0967718 -2.52226e-05 2.52226e-05 -1
0.115021 0.155336 0.154916 0.46664 -0.19011 -0.863774
0.185088 0.00841522 0.0992858 0 -1 0
0.10374 0.155851 0.148403 0.469035 -0.0641948 -0.880843
0.187217 0.158415 0.138636 0.00024558 -1 -0.000285307
0.10096 0.155597 0.146798 0.542022 -0.323599 -0.775562
0.148115 0.158415 0.162334 0.295042 -0.880089 -0.372014
0.0974373 0.155662 0.144764 0.494433 -0.0403766 -0.868277
0.211365 0.113134 0.159445 -0.8029 -0.154892 -0.575639
0.093912 0.155727 0.142729 0.483826 -0.0628537 -0.872904
0.0910495 0.155751 0.141076 0.434469 -0.396853 -0.808544
0.163519 0.158415 0.136266 0 -1 0.000241663
0.0792642 0.0435079 0.103176 -1 0 0
0.0852535 0.155747 0.13773 0.374361 -0.232127 -0.897759
0.202249 0.00841522 0.10664 0 -1 1.41084e-05
0.121203 0.0534148 0.144701 -0.103564 -0.963421 0.247173
0.226397 0.157648 0.156772 -0.13547 -0.495439 -0.858014
0.22047 0.157648 0.156772 0.00246803 -0.499806 -0.866134
0.210988 0.157648 0.156772 -0.027634 -0.495568 -0.86813
0.226764 0.00841522 0.144638 -0.149216 0.988793 -0.00486272
0.229016 0.15293 0.15603 -0.814563 0.0717577 -0.575619
0.207432 0.157648 0.156772 -0.029442 -0.412022 -0.910698
0.193814 0.141575 0.162899 -0.623658 -0.69363 -0.360454
0.20269 0.157648 0.156772 0.0677291 -0.689537 -0.721076
0.199134 0.157648 0.156772 0.0025048 -0.499414 -0.86636
0.195578 0.157648 0.156772 -0.064422 -0.692032 -0.718986
0.193208 0.157648 0.156772 0.00724323 -0.499775 -0.866125
0.187281 0.157648 0.156772 0.00254182 -0.49963 -0.866235
0.129485 0.051081 0.14609 0.662299 0.154916 -0.73305
0.178984 0.157648 0.156772 0.0645331 -0.684767 -0.7259
0.22047 0.141053 0.156772 -0 -0 -1
0.175428 0.157648 0.156772 -0.0472306 -0.770972 -0.635115
0.223087 0.00841522 0.148315 0 -1 0
0.169501 0.157648 0.156772 -0.0817573 -0.891377 -0.445828
0.172831 0.00841522 0.15567 -0.00084874 0.923973 -0.382457
0.105458 0.158415 0.129156 6.78334e-05 -1 0.000313448
0.163002 0.157387 0.159686 -0.148935 -0.979464 -0.135896
0.159676 0.157377 0.165606 -0.178181 -0.978471 -0.104146
0.189991 0.00841522 0.117672 -2.01613e-05 -1 -2.87059e-05
0.157389 0.157119 0.172093 -0.045782 -0.99866 -0.0241223
0.229265 0.0922389 0.120261 -1 0.000359031 -8.442e-06
0.207432 0.0746755 0.156772 0.000487082 0.000190396 -1
0.154253 0.157137 0.176988 0.112127 -0.854669 -0.50692
0.150359 0.157849 0.165645 0.122696 -0.638129 -0.76009
0.229265 0.0175136 0.129601 -1 8.51166e-05 0.000361897
0.167074 0.158415 0.0995333 0 -1 0
0.145663 0.157915 0.163117 0.229293 -0.78304 -0.578164
0.163519 0.158415 0.0995333 3.27893e-05 -1 0.000331869
0.138515 0.157867 0.16578 -0.386398 -0.614499 -0.687814
0.133795 0.157886 0.165201 0.278806 -0.682956 -0.675157
0.150485 0.158415 0.124417 0.000381256 -1 -0.000381303
0.168634 0.125652 0.185869 0.499822 0.000320558 -0.866128
0.129906 0.158092 0.162558 0.374787 -0.632584 -0.67777
0.10909 0.158117 0.151011 0.310794 -0.566496 -0.76321
0.229265 0.11559 0.112088 -1 0.000746453 0.000252689
0.171914 0.155591 0.157686 -0.178877 -0.849926 -0.49561
0.133695 0.154991 0.165698 0.471999 -0.0569519 -0.879758
0.105652 0.157885 0.149507 0.471839 -0.561326 -0.679913
0.172831 0.00841522 0.140961 3.95161e-06 -1 -1.83113e-05
0.169444 0.158415 0.141006 4.002e-07 -1 -0.000725163
0.10096 0.157973 0.146798 0.42044 -0.58824 -0.690799
0.0937604 0.15826 0.141867 0.371937 -0.762494 -0.529401
0.0911127 0.158262 0.141052 0.361896 -0.829066 -0.426241
0.208546 0.158415 0.132711 0.000491358 -1 -0.000173345
0.0852535 0.158182 0.13773 0.447362 -0.536574 -0.715511
0.200682 0.093081 0.175753 -0.836137 0.261297 -0.482285
0.165476 0.00841522 0.129929 1.41084e-05 -1 0
0.14219 0.158415 0.129156 -0.00024582 -1 -0.000241839
0.229265 0.128434 0.123763 -1 0 0
0.0797808 0.158371 0.13457 0.904376 -0.212619 -0.369996
0.19612 0.00841522 0.15567 0.00442852 0.924036 -0.38228
0.22622 0.135186 0.0967718 0.152321 -0.136421 -0.978871
0.150767 0.00841522 0.150767 1.41084e-05 -1 -3.23164e-05
0.208377 0.00841522 0.126252 0 -1 1.41115e-05
0.219936 0.135186 0.0967718 0.0013412 -0.984861 0.173342
0.0792642 0.0360494 0.105663 -1 -5.48992e-05 -0.00025126
0.126787 0.158415 0.148115 -0.000241983 -1 -8.4256e-06
0.0971635 0.158415 0.112568 -0.00012285 -1 0.000241546
0.214909 0.135186 0.0967718 -0.000382674 -0.166656 -0.986015
0.175282 0.00841522 0.13851 6.4433e-05 -1 -2.01808e-05
0.211138 0.135186 0.0967718 3.64469e-05 -0.707107 0.707107
0.123963 0.00859683 0.141335 0.329679 0.820187 -0.467553
0.202341 0.135186 0.0967718 -2.42448e-05 -1 9.69791e-05
0.177715 0.128284 0.191113 0.500034 -0.000711641 -0.866006
0.192287 0.135186 0.0967718 -2.62999e-05 2.62999e-05 -1
0.165476 0.00841522 0.153218 -0.0337004 0.986823 -0.158253
0.100512 0.00841498 0.128704 0.0527324 0.928925 -0.366495
0.0817596 0.158415 0.112568 0.193825 -0.980979 0.0105776
0.19481 0.116425 0.186986 -0.848543 -0.198462 -0.490497
0.14219 0.158415 0.105458 0 -1 0
0.189773 0.135186 0.0967718 0 -0 -1
0.0792642 0.0410217 0.0982041 -1 -5.83059e-05 0.000294015
0.182233 0.135186 0.0967718 -2.63013e-05 2.63013e-05 -1
0.178462 0.135186 0.0967718 2.69913e-05 2.69913e-05 -1
0.172178 0.135186 0.0967718 0 0 -1
0.169665 0.135186 0.0967718 -2.37761e-05 -0 -1
0.15961 0.135186 0.0967718 0 0 -1
0.229265 0.0443678 0.129601 -1 9.64085e-05 0.000362345
0.148316 0.00841522 0.117672 -6.45328e-05 -1 -4.05154e-05
0.157097 0.135186 0.0967718 1.18878e-05 0 -1
0.0968343 0.00841475 0.123801 -7.05816e-06 -1 0
0.154583 0.135186 0.0967718 0 -0 -1
0.229265 0.152953 0.152953 -0.999281 -0.00217331 -0.0378601
0.208546 0.158415 0.15404 -0.10741 -0.927351 -0.358445
0.15207 0.135186 0.0967718 -1.21227e-05 -0 -1
0.144529 0.135186 0.0967718 1.12956e-05 0.000299592 -1
0.190837 0.0474126 0.156772 0.000482851 6.13168e-05 -1
0.129448 0.135186 0.0967718 -8.64628e-06 -0.000119333 -1
0.0795375 0.00851067 0.117813 -0.47888 -0.877815 0.0106943
0.193142 0.158415 0.0995333 0.000222577 -1 0.000358205
0.121907 0.135186 0.0967718 5.6075e-06 -0.000101571 -1
0.118225 0.135125 0.0967718 2.72681e-07 -5.83235e-05 -1
0.114367 0.135186 0.0967718 -5.91783e-06 -0.000101691 -1
0.106826 0.135186 0.0967718 -1.23629e-05 -0.000504371 -1
0.103056 0.135186 0.0967718 -nan -nan -nan
0.120279 0.0476034 0.13902 0.552806 4.44874e-05 -0.83331
0.0992853 0.135186 0.0967718 0 -0.707107 -0.707107
0.0967718 0.135186 0.0967718 -nan -nan -nan
0.0819227 0.128408 0.135806 0.622652 0.0127606 -0.782395
0.20269 0.0651929 0.156772 -0.00048216 2.66276e-07 -1
0.0892312 0.135186 0.0967718 -0.0900243 -0.661111 -0.744867
0.0854609 0.135186 0.0967718 -0.207564 -0.0239631 -0.977928
0.0792643 0.140662 0.0975413 -0.980025 -0.117636 -0.160353
0.10433 0.00857999 0.129938 0.134841 0.895565 -0.424006
0.229215 0.00841522 0.0968343 -0.3095 0.927975 0.207539
0.214471 0.158415 0.114937 -3.15968e-07 -1 -0.000552945
0.223087 0.00841522 0.0968343 1.43491e-05 -1 -2.07519e-06
0.17829 0.0589783 0.159718 -0.346641 0.811539 -0.470367
0.229265 0.0805632 0.129601 -1 -0.000600012 0.000382109
0.136044 0.0534153 0.162016 -0.0440711 -0.989811 0.135395
0.216958 0.00841522 0.0968343 9.92368e-06 -1 -1.43928e-05
0.0792651 0.110635 0.126795 -0.996896 0.0191846 0.076362
0.122047 0.158415 0.148115 -0.000233845 -1 -0.00034061
0.202249 0.00841522 0.0968343 -2.37474e-05 -1 1.506e-05
0.0912196 0.140469 0.141174 0.499979 -4.5416e-05 -0.866037
0.19612 0.00841522 0.0968343 5.18797e-07 -1 -1.61584e-05
0.138394 0.0887141 0.166856 0.072647 -0.348619 -0.934445
0.150767 0.00841522 0.129929 1.41084e-05 -1 0
0.112568 0.158415 0.117307 -0.00034036 -1 0.000233476
0.192443 0.00841522 0.0968343 0 -1 0
0.177734 0.00841522 0.0968343 0 -1 0
0.16016 0.101852 0.172317 0.566048 -0.109421 -0.817078
0.160573 0.00841522 0.10664 3.22721e-05 -1 2.11552e-05
0.169154 0.00841522 0.0968343 7.69367e-06 -1 -1.72e-05
0.1972 0.11049 0.184542 -0.862436 -0.0713447 -0.501113
0.105652 0.0807229 0.149507 0.500045 0.000232219 -0.865999
0.165476 0.00841522 0.0968343 1.39513e-05 -1 6.63981e-07
0.163025 0.00841522 0.0968343 -9.23977e-07 -1 -1.62408e-05
0.150767 0.00841522 0.0968343 -1.39608e-05 -1 -6.67009e-07
0.105652 0.0652907 0.149506 0.50005 0.000133763 -0.865996
0.142187 0.00841522 0.0968343 -0.0078005 -0.999943 -0.00724468
0.13851 0.00841522 0.0968343 -0.0654698 -0.987045 -0.146479
0.135622 0.0086063 0.096803 0.0181921 -0.40801 -0.912796
0.214471 0.158415 0.141006 -4.01975e-07 -1 -0.000725163
0.0792651 0.0832871 0.12058 -1 7.84289e-05 0.000251142
0.123801 0.00841522 0.0968343 -0.0890634 -0.992344 -0.0855624
0.121349 0.00841522 0.0968343 -0.0563181 -0.994259 -0.0909801
0.229265 0.124931 0.127266 -1 -9.1072e-06 -0.000359194
0.212055 0.00841522 0.15567 0.0197511 0.949634 -0.312738
0.202621 0.158415 0.138636 -0.00068715 -1 -0.000263545
0.118898 0.00841522 0.0968343 -0.00917516 -0.359827 -0.932974
0.181411 0.00841522 0.117672 2.02616e-05 -1 1.43576e-05
0.109092 0.00841522 0.0968343 -9.25721e-07 -1 -1.62413e-05
0.118898 0.00841522 0.121349 3.94756e-06 -1 1.82926e-05
0.124479 0.0476046 0.141978 0.602597 -0.000285068 -0.798046
0.10664 0.00841522 0.0968343 6.34891e-06 -1 -1.71649e-05
0.104189 0.00841522 0.0968343 6.97722e-06 -1 -3.32065e-07
0.22047 0.0675636 0.156772 -4.44948e-08 0.000362188 -1
0.112568 0.158415 0.129156 -0.000348665 -1 -8.43001e-06
0.0919313 0.00841522 0.0968343 0 -1 0
0.0792651 0.0857733 0.126795 -1 -0.000109794 0
0.088162 0.00841517 0.0970145 -5.26919e-06 -1 -5.13433e-05
0.0845769 0.00841522 0.0968343 -0.125095 -0.991229 -0.0426123
0.148115 0.158415 0.129156 0.000552486 -1 0
0.0878103 0.0534153 0.134807 -0.0872886 -0.990732 0.10407
0.209935 0.0949572 0.160607 -0.840647 0.176973 -0.511852
0.15404 0.158415 0.129156 -0.00024594 -1 -0.000241898
0.0794693 0.0085584 0.0975192 -0.600169 -0.659882 -0.452055
0.0792642 0.0708563 0.118094 -1 0.000164645 0.00025112
0.169154 0.00841522 0.10664 2.86765e-05 -1 2.82006e-05
0.085001 0.140505 0.137584 0.500243 0.000430607 -0.865885
0.229215 0.00841522 0.0992858 -0.501936 0.864647 0.0211001
0.228977 0.158019 0.141141 -0.724502 -0.685343 -0.0735018
0.163025 0.00841522 0.144638 -9.26915e-09 -1 -1.43579e-05
0.219409 0.00841522 0.0992858 1.36373e-05 -1 1.98725e-05
0.229265 0.103915 0.148282 -1 0.000462599 -0.00071596
0.178923 0.158415 0.114937 0.000482859 -1 -2.66846e-07
0.216958 0.00841522 0.0992858 2.08182e-05 -1 -2.09922e-05
0.0792651 0.110635 0.123066 -1 0.000157065 4.91759e-06
0.122047 0.158415 0.150485 -0.000249929 -1 -0.000356506
0.214506 0.00841522 0.0992858 3.97313e-05 -1 -1.90941e-05
0.2047 0.00841522 0.0992858 -1.41257e-05 -1 4.73387e-07
0.170795 0.0977654 0.187117 0.500076 -0.000178571 -0.865981
0.202249 0.00841522 0.0992858 1.66793e-05 -1 6.62071e-07
0.111031 0.017512 0.133843 0.42995 0.000829141 -0.902852
0.0818144 0.1557 0.135744 0.539302 -0.204252 -0.816966
0.19612 0.00841522 0.0992858 -2.0117e-07 -1 -1.01772e-05
0.150767 0.00841522 0.113995 -2.02872e-05 -1 -1.31115e-05
0.18754 0.00841522 0.0992858 0 -1 0
0.229265 0.122596 0.120261 -1 -0.000358966 -8.44048e-06
0.175282 0.00841522 0.0992858 3.33319e-05 -1 -1.32308e-06
0.187638 0.119088 0.196663 -0.19618 -0.0714985 -0.977958
0.105458 0.158415 0.14456 0.0596105 -0.98805 -0.14214
0.172831 0.00841522 0.0992858 0 -1 0
0.169444 0.158415 0.0995333 -0.000163911 -1 0.000299633
0.111031 0.0387766 0.133843 0.43112 -0.00216102 -0.902292
0.158122 0.00841522 0.0992858 1.41228e-05 -1 4.77959e-07
0.150767 0.00841522 0.0992858 1.38807e-05 -1 9.69268e-06
0.145864 0.00841522 0.0992858 -1.41328e-05 -1 -4.87496e-07
0.211084 0.119613 0.157752 -0.549342 -0.205097 -0.810036
0.131465 0.149229 0.16441 0.500169 -0.000373223 -0.865928
0.138636 0.158415 0.109013 0.000241604 -1 0
0.142187 0.00841522 0.0992858 0 -1 0
0.13851 0.00841522 0.0992858 -0.116656 -0.97984 -0.162185
0.136058 0.00841522 0.0992858 -0.0564963 -0.989472 -0.133241
0.214471 0.158415 0.14456 -7.01484e-08 -1 0.000245519
0.0818142 0.0802974 0.135744 0.580448 0.00432667 -0.814286
0.118898 0.00841522 0.0992858 -0.00936393 -0.993861 -0.110242
0.104189 0.00841522 0.0992858 2.40184e-07 -1 1.01774e-05
0.229265 0.0688874 0.10625 -1 -0 -0
0.0968343 0.00841522 0.0992858 -7.06303e-06 -1 2.40184e-07
0.178984 0.0106678 0.156772 0.0420252 0.324933 -0.944803
0.0943828 0.00841522 0.0992858 0 -1 0
0.0845769 0.00841522 0.0992858 -0.00855147 -0.999963 0.000516339
0.15404 0.158415 0.126787 0.000736558 -1 -2.10145e-07
0.0794693 0.0085584 0.099988 -0.475599 -0.879511 0.0163184
0.229265 0.0151785 0.148282 -1 -1.86117e-05 -0.00061979
0.0792648 0.140662 0.102544 -1 0.000314331 0.00022194
0.0792642 0.0708563 0.115608 -1 9.61142e-06 0.000269255
0.169154 0.00841522 0.113995 1.43447e-05 -1 -7.05657e-06
0.229215 0.00841522 0.102963 -0.870951 0.487337 -0.0628328
0.228977 0.158019 0.132908 -0.549414 -0.835535 -0.00511092
0.223087 0.00841522 0.102963 2.86829e-05 -1 4.64877e-09
0.198466 0.134679 0.165617 -0.731917 -0.538098 -0.418028
0.171096 0.101478 0.178631 0.500198 -0.000149128 -0.865911
0.0846455 0.0989516 0.128718 0.288847 -0.0403337 -0.956525
0.172831 0.00841522 0.10664 1.9732e-06 -1 9.14872e-06
0.169444 0.158415 0.105458 0 -1 0
0.224026 0.0177797 0.156772 -0.045565 -0.00223595 -0.998959
0.178923 0.158415 0.117307 0.000245563 -1 0.000245656
0.216958 0.00841522 0.102963 0 -1 0
0.214506 0.00841498 0.102963 0 -1 0
0.19612 0.00841522 0.102963 -4.30243e-05 -1 -2.53242e-05
0.150767 0.00841522 0.111543 -2.06705e-05 -1 1.07326e-05
0.189991 0.00841522 0.102963 -2.01636e-05 -1 7.17864e-06
0.0817061 0.134381 0.135681 0.568178 -0.0302024 -0.822351
0.159964 0.158415 0.150485 0.000348081 -1 -8.85628e-06
0.16008 0.0928394 0.18093 0.591183 -0.156351 -0.791237
0.18754 0.00841522 0.102963 -2.31569e-09 -1 7.17401e-06
0.185088 0.00841522 0.102963 -1.62033e-09 -1 7.17484e-06
0.133896 0.158415 0.105458 -0.00025016 -1 -0.000356955
0.223087 0.00841522 0.117672 -4.6525e-09 -1 -1.4353e-05
0.172831 0.00841522 0.102963 0 -1 7.17484e-06
0.169444 0.158415 0.103088 0.0002855 -1 1.11356e-05
0.158122 0.00841522 0.102963 4.23027e-05 -1 7.15541e-06
0.154445 0.00841522 0.102963 -1.43525e-05 -1 -5.06716e-06
0.150767 0.00841522 0.102963 1.41067e-05 -1 7.1716e-06
0.148316 0.00841522 0.102963 0 -1 -5.06483e-06
0.171814 0.158415 0.117307 -0.000449105 -1 -0.000695247
0.199797 0.00841522 0.117672 0 -1 -1.4353e-05
0.142187 0.00841522 0.102963 1.43496e-05 -1 -1.51933e-05
0.133607 0.00841522 0.102963 4.03344e-05 -1 7.16938e-06
0.127478 0.00841522 0.102963 1.74369e-09 -1 -1.51945e-05
0.229099 0.119301 0.155783 -0.897531 -0.00572008 -0.440914
0.0821254 0.00841522 0.117672 -0.189606 -0.981836 0.00688885
0.0792642 0.0832871 0.115608 -1 9.88962e-06 0.000316617
0.123801 0.00841522 0.102963 8.10075e-10 -1 -7.17484e-06
0.121349 0.00841522 0.102963 -3.22747e-05 -1 -5.06483e-06
0.212055 0.00841522 0.150767 2.03259e-05 -1 -6.4339e-07
0.202621 0.158415 0.14456 -0.000697879 -1 -1.35487e-05
0.199449 0.107048 0.181042 -0.865008 -0.0149653 -0.501534
0.118898 0.00841522 0.102963 0 -1 -7.17484e-06
0.111543 0.00841522 0.102963 7.05577e-06 -1 7.17484e-06
0.0968343 0.00841522 0.102963 -7.05735e-06 -1 7.17403e-06
0.184623 0.0976032 0.195101 0.484211 -0.0123412 -0.874864
0.0919313 0.00841522 0.102963 6.87789e-06 -1 -1.28955e-07
0.193208 0.0106678 0.156772 0.0337288 0.302512 -0.952549
0.0845769 0.00841522 0.102963 -0.00568908 -0.999984 -3.18029e-05
0.229265 0.0922389 0.102747 -1 -0 -0
0.15404 0.158415 0.112568 -0.000245762 -1 0.000241487
0.0821254 0.00841498 0.102963 -0.189895 -0.981798 0.00343892
0.118402 0.0298677 0.0967718 3.95472e-07 -3.16377e-06 -1
0.127478 0.00841522 0.10664 -6.47693e-09 -1 2.82135e-05
0.0795375 0.00851067 0.103034 -0.479661 -0.877438 0.00527196
0.208377 0.00841522 0.121349 0 -1 0
0.193142 0.158415 0.103088 0.000285588 -1 -1.12385e-05
0.118402 0.0621253 0.0967718 2.97385e-06 -5.94769e-06 -1
0.228977 0.158019 0.136436 -0.735177 -0.673939 0.0729469
0.138636 0.158415 0.103088 0.000483595 -1 1.64202e-05
0.223087 0.00841522 0.10664 -6.47396e-09 -1 2.82135e-05
0.157648 0.0533392 0.156772 -0.0242442 0.884418 -0.466066
0.17722 0.0637741 0.17722 -0.523057 0.796067 -0.304449
0.173408 0.10145 0.179966 0.500094 4.42686e-05 -0.865971
0.172831 0.00841522 0.113995 -5.09537e-05 -1 -6.43916e-06
0.169444 0.158415 0.114937 0 -1 0
0.178923 0.158415 0.120862 0 -1 0
0.229265 0.0992443 0.152953 -0.99938 -0.00438776 -0.0349198
0.135186 0.0867176 0.0967718 -nan -nan -nan
0.214506 0.00841522 0.10664 3.93893e-05 -1 2.92245e-05
0.208377 0.00841522 0.10664 -1.43577e-05 -1 4.23235e-05
0.2047 0.00841522 0.10664 3.26704e-05 -1 1.03875e-05
0.0987858 0.103547 0.136882 0.500226 6.35336e-05 -0.865895
0.19612 0.00841522 0.10664 -3.23735e-09 -1 7.05418e-06
0.185088 0.00841522 0.10664 -2.42388e-05 -1 -3.14033e-05
0.109092 0.00841522 0.109092 -2.60625e-09 -1 1.00888e-05
0.181411 0.00841522 0.10664 1.43514e-05 -1 1.41051e-05
0.133896 0.158415 0.14456 0.000241488 -1 0
0.199134 0.0675636 0.156772 -0.143497 0.112988 -0.98318
0.177715 0.114161 0.191112 0.499759 0.000219674 -0.866164
0.114937 0.158415 0.126787 0 -1 0
0.12986 0.0534153 0.157069 7.91841e-05 -1 0.00025351
0.175282 0.00841522 0.10664 6.44112e-05 -1 2.11334e-05
0.165476 0.00841522 0.10664 1.63202e-05 -1 5.18641e-06
0.0792646 0.0285909 0.111878 -1 -2.74456e-05 -1.5319e-09
0.145864 0.00841522 0.10664 -1.63309e-05 -1 5.19922e-06
0.138636 0.158415 0.138636 0.000483075 -1 0.000551914
0.228881 0.158151 0.099437 -0.711377 -0.701964 0.0344724
0.142187 0.00841522 0.10664 -3.23921e-09 -1 2.82135e-05
0.214544 0.0391154 0.156772 0.00069803 -7.68913e-05 -1
0.13851 0.00841522 0.10664 -1.98137e-06 -1 9.15186e-06
0.131155 0.00841522 0.10664 2.02774e-05 -1 1.31011e-05
0.123801 0.00841522 0.10664 -2.02906e-05 -1 1.31152e-05
0.14558 0.121908 0.163899 0.46483 0.0263671 -0.885007
0.100122 0.0441012 0.129767 0.275332 -0.00185052 -0.961347
0.121349 0.00841522 0.10664 -3.22857e-05 -1 2.11698e-05
0.229265 0.124931 0.123763 -1 0.000366011 -0.000185811
0.212055 0.00841522 0.153218 0.01805 0.986855 -0.160599
0.202621 0.158415 0.136266 -0.00069693 -1 1.6329e-05
0.118898 0.00841522 0.10664 -1.63259e-05 -1 5.19803e-06
0.15964 0.104809 0.162896 -0.898363 0.105162 -0.426479
0.115221 0.00841522 0.10664 -6.47396e-09 -1 2.82135e-05
0.181411 0.00841522 0.102963 1.43546e-05 -1 -1.51945e-05
0.109092 0.00841522 0.10664 -3.23023e-05 -1 2.11698e-05
0.104189 0.00841522 0.10664 1.97465e-06 -1 9.14903e-06
0.154628 0.0544643 0.17442 -0.0845996 -0.962958 0.256037
0.0818144 0.158134 0.135744 0.554328 -0.343603 -0.758062
0.100512 0.00841522 0.10664 7.16671e-06 -1 2.82119e-05
0.22047 0.152906 0.156772 -0 -0 -1
0.0968343 0.00841522 0.10664 -1.11354e-05 -1 1.11303e-05
0.0943828 0.00841522 0.10664 -1.61499e-05 -1 2.11625e-05
0.207432 0.0355595 0.156772 0 -6.1376e-05 -1
0.0919313 0.00841522 0.10664 1.59059e-05 -1 -5.50911e-06
0.226397 0.0651929 0.156772 -0.370631 -0.00550643 -0.928764
0.088116 0.00841514 0.106215 6.42044e-08 -1 1.36466e-05
0.212101 0.158415 0.105458 0.000475459 -1 -0.000332139
0.229265 0.0151785 0.152953 -0.999217 0.0039459 -0.0393771
0.0792648 0.140662 0.108804 -1 0 0
0.093912 0.148595 0.142729 0.49975 -0.000322624 -0.86617
0.226764 0.00841522 0.109092 -0.148019 0.987938 0.0454765
0.201158 0.11862 0.174995 -0.839532 -0.240428 -0.487217
0.223087 0.00841522 0.109092 -4.63001e-09 -1 1.00888e-05
0.177272 0.0627155 0.174106 -0.502121 0.817088 -0.283268
0.172831 0.00841522 0.111543 -1.41188e-05 -1 -3.22737e-05
0.169444 0.158415 0.112568 0 -1 0
0.14558 0.065097 0.163898 0.433064 -0.00153993 -0.901362
0.178923 0.158415 0.0995333 0 -1 0
0.229016 0.0988131 0.15603 -0.663236 -0.000722449 -0.74841
0.154669 0.0799949 0.177807 0.519497 0.00247445 -0.854469
0.214506 0.00841522 0.109092 -6.45609e-05 -1 1.00679e-05
0.208377 0.00841522 0.109092 0 -1 1.00888e-05
0.103489 0.110626 0.139597 0.499893 0.000407202 -0.866087
0.190837 0.0142238 0.156772 -0 -0 -1
0.2047 0.00841522 0.109092 -1.41147e-05 -1 -7.29255e-09
0.202249 0.00841522 0.109092 3.23164e-05 -1 2.01776e-05
0.121203 0.0534153 0.154595 -0.118474 -0.964398 0.236431
0.101342 0.104349 0.138358 0.500171 2.94689e-05 -0.865927
0.19612 0.00841522 0.109092 -1.43414e-05 -1 1.00888e-05
0.0952308 0.0534153 0.134807 0 -1 0
0.229265 0.0408651 0.136607 -1 -0.000139521 0.000645156
0.18754 0.00841522 0.109092 -2.01743e-05 -1 -4.84497e-05
0.185088 0.00841522 0.109092 -2.82422e-05 -1 -4.84496e-05
0.109092 0.00841522 0.0992858 0 -1 0
0.181411 0.00841522 0.109092 -1.43546e-05 -1 -2.01776e-05
0.133896 0.158415 0.148115 8.24994e-06 -1 -0.00034835
0.171872 0.0142238 0.156772 0.000482858 -1.48183e-08 -1
0.114937 0.158415 0.124417 -8.34064e-06 -1 -0.000241921
0.177734 0.00841522 0.109092 -9.56621e-07 -1 -3.02963e-05
0.0792642 0.0708563 0.133011 -0.952323 -0.00379599 0.305069
0.229215 0.00841522 0.144638 -0.500904 0.865462 -0.0084209
0.169154 0.00841522 0.109092 1.43424e-05 -1 1.00842e-05
0.165476 0.00841522 0.109092 2.064e-05 -1 1.07285e-05
0.0977043 0.0534153 0.138517 -0.00219594 -0.999996 0.00178657
0.138394 0.143125 0.166856 -0.303622 -0.0115946 -0.952722
0.219409 0.00841522 0.111543 1.41147e-05 -1 0
0.163025 0.00841522 0.109092 3.22612e-05 -1 1.00784e-05
0.160573 0.00841522 0.109092 0 -1 1.00888e-05
0.195578 0.0272623 0.156772 0.000330078 -0.00014603 -1
0.158122 0.00841522 0.109092 -3.25038e-07 -1 1.00992e-05
0.154445 0.00841522 0.109092 -1.4349e-05 -1 -1.00841e-05
0.150767 0.00841522 0.109092 -2.00361e-05 -1 9.46781e-06
0.13851 0.00841522 0.109092 3.1877e-07 -1 1.00988e-05
0.204991 0.158415 0.105458 0.000696634 -1 -1.75848e-05
0.136058 0.00841522 0.109092 -2.60827e-09 -1 1.00888e-05
0.214471 0.158415 0.15404 -0.0152195 -0.973138 -0.229721
0.133607 0.00841522 0.109092 3.2269e-05 -1 -1.00907e-05
0.131155 0.00841522 0.109092 4.09866e-05 -1 -1.13855e-05
0.123801 0.00841522 0.109092 2.06635e-05 -1 1.07292e-05
0.118898 0.00841522 0.109092 -3.20469e-07 -1 1.00989e-05
0.10664 0.00841522 0.109092 1.61306e-05 -1 1.00829e-05
0.104189 0.00841522 0.109092 -9.86051e-06 -1 -9.77999e-06
0.154635 0.0547228 0.176903 0.122741 0.862751 -0.490505
0.100512 0.00841522 0.109092 0 -1 1.00855e-05
0.0968343 0.00841522 0.109092 2.06736e-05 -1 1.07295e-05
0.0943828 0.00841522 0.109092 -1.61525e-05 -1 -1.00914e-05
0.0919313 0.00841522 0.109092 4.86266e-05 -1 7.27874e-06
0.120239 0.0359074 0.138993 0.535365 9.24953e-05 -0.844621
0.0845769 0.00841522 0.109092 1.09682e-05 -1 1.0015e-05
0.10374 0.0925298 0.148403 0.499918 -0.000113259 -0.866073
0.15404 0.158415 0.141006 -0.000246059 -1 -0.000483561
0.160573 0.00841522 0.133607 3.22831e-05 -1 -1.41147e-05
0.169154 0.00841498 0.117672 1.4349e-05 -1 1.01232e-05
0.229215 0.00841522 0.111543 -0.854291 0.51056 -0.0975442
0.228977 0.158019 0.129379 -0.549605 -0.835423 0.001615
0.10394 0.118402 0.0967718 -0.000336403 0.0258877 -0.999665
0.226764 0.00841522 0.111543 -0.147772 0.987836 -0.0484192
0.216958 0.00841522 0.111543 3.22061e-05 -1 1.00647e-05
0.229265 0.0992443 0.148282 -1 -0.00013965 -0.000645968
0.214506 0.00841522 0.111543 -4.03956e-05 -1 1.61123e-05
0.118402 0.0991612 0.0967718 0 0 -1
0.189711 0.0746104 0.177232 -0.699428 0.58924 -0.404472
0.108186 0.112942 0.14231 0.500155 7.63225e-05 -0.865936
0.214544 0.0177797 0.156772 0.000695051 8.56161e-06 -1
0.212055 0.00841522 0.111543 2.09338e-05 -1 2.07994e-05
0.151729 0.118402 0.0967718 -8.94834e-06 -0.707098 0.707116
0.208377 0.00841522 0.111543 -4.63064e-09 -1 2.01711e-05
0.2047 0.00841522 0.111543 -1.41147e-05 -1 0
0.122499 0.0178395 0.140497 0.575319 -0.00268547 -0.817925
0.184654 0.0812352 0.19437 -0.118702 0.473219 -0.872911
0.19612 0.00841522 0.111543 1.43322e-05 -1 4.03375e-05
0.112568 0.158415 0.103088 -0.000208876 -1 8.69256e-06
0.192443 0.00841522 0.111543 2.82058e-05 -1 4.8385e-05
0.189991 0.00841522 0.111543 -2.07735e-08 -1 4.03421e-05
0.185088 0.00841475 0.111543 -1.9721e-05 -1 1.956e-05
0.109092 0.00841522 0.102963 2.01643e-05 -1 7.16707e-06
0.181411 0.00841498 0.111543 6.94915e-09 -1 -3.02566e-05
0.133896 0.158415 0.138636 -0.000241796 -1 0.000552315
0.0846755 0.0298151 0.126987 0.0829313 -0.00276983 -0.996551
0.114937 0.158415 0.132711 6.77079e-06 -1 -0.000173592
0.177734 0.00841522 0.111543 2.82185e-05 -1 -6.45473e-05
0.0950756 0.0960159 0.1434 0.499958 -0.000144526 -0.86605
0.130216 0.0534152 0.150384 -0.40226 -0.870395 0.283898
0.175282 0.00841522 0.111543 -3.22997e-05 -1 -6.05131e-05
0.0792651 0.0708563 0.123066 -1 0.000173122 0.000173093
0.229215 0.00841522 0.10664 -0.859428 0.503735 0.087377
0.169154 0.00841522 0.111543 1.43401e-05 -1 2.01664e-05
0.165476 0.00841522 0.111543 1.96768e-05 -1 1.95424e-05
0.229265 0.0443678 0.148282 -1 3.14879e-08 -0.00049776
0.0797808 0.0595377 0.13457 0.846886 0.00864665 -0.531704
0.148316 0.00841522 0.111543 -5.20678e-09 -1 1.00855e-05
0.0792646 0.0285909 0.118094 -1 -2.74337e-05 0.000251095
0.145864 0.00841522 0.111543 -4.00855e-05 -1 1.89291e-05
0.0950761 0.140906 0.1434 0.50064 0.00029135 -0.865655
0.138636 0.158415 0.120862 0.000241604 -1 -5.93695e-08
0.131155 0.00841522 0.111543 4.09916e-05 -1 1.13556e-05
0.22047 0.0628223 0.156772 -2.9665e-08 -0.000120736 -1
0.123801 0.00841522 0.111543 1.97023e-05 -1 1.95447e-05
0.10664 0.00841522 0.10664 -1.0736e-05 -1 2.06672e-05
0.118898 0.00841522 0.111543 3.17073e-07 -1 1.00954e-05
0.115221 0.00841522 0.111543 -7.1717e-06 -1 2.01699e-05
0.14596 0.107987 0.151267 -0.817917 0.285994 -0.499218
0.10664 0.00841522 0.111543 -1.0094e-05 -1 1.61384e-05
0.104189 0.00841522 0.111543 -9.54513e-06 -1 1.98738e-05
0.131664 0.054004 0.164525 -0.243662 -0.905822 0.346576
0.214506 0.00841522 0.153218 -0.00188417 0.986866 -0.161533
0.0919313 0.00841522 0.111543 1.92657e-05 -1 -9.1337e-06
0.088162 0.00841517 0.111629 1.42286e-05 -1 1.87378e-05
0.105125 0.0534158 0.132334 0.128917 0.86438 -0.486033
0.212101 0.158415 0.112568 -6.81247e-05 -1 -0.000313786
0.0821254 0.00841522 0.111543 -0.190927 -0.981571 0.00810215
0.0794011 0.00860612 0.111766 -0.866446 -0.499195 -0.00869556
0.193142 0.158415 0.105458 0 -1 0
0.199067 0.158415 0.141006 -1.1884e-07 -1 -0.000483442
0.0792645 0.140662 0.11505 -1 -0 -0
0.229265 0.0992443 0.138942 -0.999999 0.000248911 0.0011383
0.175282 0.00841522 0.148315 6.4433e-05 -1 0
0.1798 0.0666471 0.1798 -0.57638 0.747919 -0.329246
0.214506 0.00841522 0.113995 3.22274e-05 -1 -7.0776e-06
0.190183 0.0738301 0.175232 -0.688508 0.603197 -0.402629
0.110534 0.11291 0.143665 0.499916 -8.86574e-05 -0.866074
0.212055 0.00841522 0.113995 2.02812e-05 -1 -1.31102e-05
0.112201 0.104314 0.144627 0.500174 0.000143356 -0.865925
0.208377 0.00841522 0.113995 0 -1 0
0.2047 0.00841522 0.113995 -2.03097e-05 -1 -1.31202e-05
0.154092 0.0201504 0.156772 -0.0004914 -2.56084e-08 -1
0.202249 0.00841522 0.113995 3.23201e-05 -1 -7.06307e-06
0.214544 0.143424 0.156772 -2.30202e-07 -0.00110497 -0.999999
0.189991 0.00841522 0.113995 -1.98471e-05 -1 -9.53473e-06
0.160385 0.157573 0.162308 -0.156392 -0.984031 -0.0849983
0.18754 0.00841522 0.113995 3.18667e-07 -1 1.01776e-05
0.184623 0.125826 0.1951 0.293453 -0.0760142 -0.952946
0.185088 0.00841522 0.113995 -3.95277e-06 -1 1.83065e-05
0.165476 0.00841522 0.113995 3.46182e-05 -1 -1.2442e-06
0.163025 0.00841522 0.113995 3.22685e-05 -1 -2.82158e-05
0.154445 0.00841522 0.113995 1.43414e-05 -1 0
0.0792646 0.0285909 0.12058 -1 -3.46501e-05 -0.000155868
0.145864 0.00841522 0.113995 -1.63299e-05 -1 -5.19705e-06
0.093912 0.140273 0.142728 0.500409 0.000122135 -0.865789
0.138636 0.158415 0.124417 0.000381136 -1 -0.000381277
0.229073 0.157887 0.102861 -0.862586 -0.505909 0.00151588
0.142187 0.00841522 0.113995 0 -1 0
0.13851 0.00841522 0.113995 -1.97803e-06 -1 -9.15415e-06
0.123801 0.00841522 0.113995 -2.02842e-05 -1 -1.31109e-05
0.213854 0.118402 0.0967718 2.53088e-05 -5.06175e-05 -1
0.10664 0.00841522 0.102963 -1.00899e-05 -1 7.17517e-06
0.118898 0.00841522 0.113995 -1.63247e-05 -1 -5.19363e-06
0.111543 0.00841522 0.113995 -1.97716e-06 -1 -9.15396e-06
0.229265 0.0595468 0.138942 -1 0.000284931 0.0005878
0.117566 0.100941 0.147725 0.499887 -0.000139788 -0.866091
0.229016 0.157636 0.15603 -0.542821 -0.322543 -0.775443
0.181411 0.00841522 0.0992858 0 -1 0
0.109092 0.00841522 0.113995 -3.22914e-05 -1 -7.05577e-06
0.214544 0.119717 0.156772 -0.168148 -0.0146513 -0.985653
0.10664 0.00841522 0.113995 -1.61457e-05 -1 -7.05577e-06
0.16008 0.0864383 0.180931 0.49969 0.000153071 -0.866204
0.104189 0.00841522 0.113995 1.97972e-06 -1 -9.15479e-06
0.214506 0.00841522 0.15567 0.0724773 0.844218 -0.531077
0.100512 0.00841522 0.113995 7.17319e-06 -1 0
0.193208 0.0237063 0.156772 -5.99073e-09 4.3325e-05 -1
0.216841 0.158415 0.136266 0.000693844 -1 -0.000448655
0.147906 0.125424 0.165242 0.499592 -7.86246e-07 -0.866261
0.088162 0.00841501 0.114065 -2.87185e-05 -1 7.24047e-06
0.229265 0.119093 0.152953 -0.999239 0.0031266 -0.0388761
0.0821254 0.00841522 0.113995 -0.34074 -0.939877 0.0229819
0.173281 0.0927283 0.188553 0.500801 -0.000345716 -0.865562
0.0794693 0.0085584 0.114801 -0.475371 -0.879751 0.00774372
0.229073 0.157887 0.123981 -0.862643 -0.505799 -0.00372772
0.229265 0.0992443 0.136607 -1 0.000139252 0.000645044
0.175282 0.00841522 0.144638 3.32889e-05 -1 -1.43579e-05
0.117566 0.104503 0.147725 0.500203 0.000273885 -0.865908
0.214506 0.00841522 0.117672 -4.04147e-05 -1 -1.43808e-05
0.208377 0.00841522 0.117672 0 -1 -1.01272e-05
0.2047 0.00841522 0.117672 -1.4118e-05 -1 -1.43562e-05
0.192443 0.00841522 0.153218 -0.0097712 0.986863 -0.161261
0.202249 0.00841522 0.117672 3.22883e-05 -1 -1.01324e-05
0.0910495 0.0803248 0.141076 0.500036 5.21002e-05 -0.866004
0.2047 0.00841522 0.153218 0.00134855 0.986877 -0.161467
0.150231 0.121841 0.166584 0.499229 -0.000398246 -0.86647
0.14558 0.0840341 0.163899 0.414772 -0.00969937 -0.909874
0.177734 0.00841522 0.117672 2.8191e-05 -1 2.86798e-05
0.175282 0.00841522 0.117672 3.22061e-05 -1 2.02492e-05
0.160573 0.00841498 0.117672 0 -1 0
0.158122 0.00841522 0.117672 2.82104e-05 -1 -2.87025e-05
0.20269 0.0106678 0.156772 -0.186852 0.445095 -0.875772
0.154445 0.00841522 0.117672 1.01147e-05 -1 -7.17625e-05
0.150767 0.00841522 0.117672 -1.41277e-05 -1 -7.17763e-05
0.145864 0.00841522 0.117672 -1.41179e-05 -1 -3.24065e-09
0.229215 0.00841522 0.153218 -0.861029 0.498079 -0.102698
0.138636 0.158415 0.150485 0.000475573 -1 0.000332193
0.133607 0.00841522 0.117672 4.03356e-05 -1 -1.4353e-05
0.131155 0.00841522 0.117672 1.41052e-05 -1 0
0.123801 0.00841522 0.117672 0 -1 0
0.10664 0.00841522 0.0992858 -1.00989e-05 -1 -3.20364e-07
0.118898 0.00841522 0.117672 0 -1 0
0.157746 0.117394 0.177984 -0.819321 -0.470723 0.327313
0.199227 0.128573 0.171176 -0.783644 -0.432659 -0.445768
0.115221 0.00841522 0.117672 -1.16284e-09 -1 -1.4353e-05
0.111543 0.00841522 0.117672 7.05577e-06 -1 -1.4353e-05
0.229265 0.0595468 0.148282 -1 0.000284596 -0
0.109092 0.00841522 0.117672 -4.63223e-09 -1 -2.87059e-05
0.10664 0.00841522 0.117672 -1.00934e-05 -1 -2.87071e-05
0.104189 0.00841522 0.117672 0 -1 0
0.0968343 0.00841522 0.117672 3.52868e-05 -1 -2.86961e-05
0.166176 0.114319 0.18445 0.499711 0.00017491 -0.866192
0.10096 0.0629517 0.146798 0.500059 5.48999e-05 -0.865992
0.0943828 0.00841522 0.117672 3.33174e-05 -1 -4.30562e-05
0.0919313 0.00841475 0.117672 -7.06849e-06 -1 -2.88665e-05
0.088162 0.00841517 0.117718 -2.03153e-05 -1 1.63928e-08
0.199067 0.158415 0.148115 0 -1 0
0.0792645 0.140726 0.120716 -1 0.00015872 0.000210174
0.226764 0.00841522 0.121349 -0.31729 0.935424 -0.155916
0.223087 0.00841522 0.121349 0 -1 0
0.216958 0.00841522 0.121349 3.22165e-05 -1 -7.27563e-09
0.214506 0.00841522 0.121349 0 -1 0
0.108735 0.113777 0.151287 0.500002 -4.14192e-05 -0.866024
0.212055 0.00841522 0.121349 2.22478e-05 -1 2.22401e-05
0.199797 0.00841522 0.121349 -3.95664e-06 -1 -1.8311e-05
0.19612 0.00841522 0.121349 -1.43414e-05 -1 0
0.118402 0.0322571 0.0967718 -3.95472e-07 -3.16377e-06 -1
0.189991 0.00841522 0.121349 6.43666e-05 -1 0
0.159964 0.158415 0.132711 0.000341209 -1 -0.000166803
0.229265 0.0408651 0.148282 -1 0.000139593 -0.000645945
0.126925 0.11269 0.153128 0.500011 -0.000592853 -0.866019
0.0797808 0.0631103 0.13457 0.846432 -3.47706e-05 -0.532498
0.18754 0.00841522 0.121349 0 -1 0
0.112993 0.137622 0.153745 0.500124 8.59649e-05 -0.865954
0.160019 0.0320035 0.156772 -0.000696699 1.64882e-05 -1
0.185088 0.00841522 0.121349 -1.43611e-05 -1 1.43432e-05
0.224026 0.0960111 0.156772 -4.08412e-06 0.000120839 -1
0.163947 0.089641 0.183163 0.500309 0.000364934 -0.865847
0.175282 0.00841522 0.121349 6.4433e-05 -1 -1.45513e-08
0.223087 0.00841522 0.136058 0 -1 -2.01873e-05
0.0860105 0.0983345 0.138166 0.309591 -0.64492 -0.698736
0.172831 0.00841522 0.121349 3.95085e-06 -1 1.82944e-05
0.169444 0.158415 0.120862 0.000552486 -1 -9.58179e-08
0.0792646 0.0211324 0.123066 -0.974695 0.000799303 0.223536
0.12729 0.0390594 0.1442 0.638022 0.000702969 -0.770018
0.105458 0.158415 0.117307 6.78334e-05 -1 0.000313448
0.0792642 0.0708563 0.12058 -1 0.000109763 -2.7558e-08
0.229215 0.00841522 0.109092 -0.86175 0.497049 0.101628
0.160573 0.00841522 0.129929 6.04644e-05 -1 -4.16422e-08
0.169154 0.00841522 0.121349 1.4348e-05 -1 1.41212e-05
0.178265 0.143029 0.186957 -0.595186 -0.698902 -0.396596
0.205355 0.0955687 0.168785 -0.851939 0.191426 -0.487397
0.165476 0.00841522 0.121349 2.86772e-05 -1 2.86721e-05
0.160573 0.00841522 0.121349 1.45813e-08 -1 2.82295e-05
0.158122 0.00841522 0.121349 6.67497e-05 -1 6.67497e-05
0.154444 0.00841475 0.121349 2.86829e-05 -1 -1.41147e-05
0.0818142 0.0681272 0.135744 0.617874 -0.00224994 -0.786274
0.150767 0.00841475 0.121349 -2.2263e-05 -1 2.22528e-05
0.126787 0.158415 0.159964 0.238935 -0.879975 -0.410555
0.229265 0.0443678 0.138942 -1 7.4335e-08 0.000587544
0.0792642 0.0596679 0.133011 -0.952464 -0.00628744 0.304586
0.148316 0.00841522 0.121349 -1.45755e-08 -1 -2.82327e-05
0.0792642 0.0285909 0.103176 -1 0 0
0.150231 0.146682 0.166584 0.59429 0.0218339 -0.803955
0.145864 0.00841522 0.121349 -2.6216e-05 -1 -4.05575e-05
0.229215 0.00841522 0.150767 -0.858604 0.499643 0.1147
0.138636 0.158415 0.129156 0.000381123 -1 0.000381217
0.142187 0.00841522 0.121349 -2.87156e-05 -1 -5.64845e-05
0.133607 0.00841522 0.121349 0 -1 0
0.0792642 0.0832871 0.0982041 -1 -3.86044e-08 0.000269034
0.123801 0.00841522 0.121349 -2.22669e-05 -1 2.22567e-05
0.115221 0.00841522 0.121349 0 -1 0
0.10096 0.136593 0.146798 0.50014 3.75125e-05 -0.865945
0.111543 0.00841522 0.121349 3.95606e-06 -1 -1.83108e-05
0.205061 0.0237063 0.156772 -0 6.49875e-05 -1
0.10664 0.00841522 0.121349 -1.00988e-05 -1 3.18718e-07
0.216841 0.158415 0.129156 0.000693844 -1 0.000448655
0.18117 0.130584 0.193107 0.396088 -0.162148 -0.903782
0.0968343 0.00841522 0.121349 -1.24219e-06 -1 -3.46283e-05
0.0943828 0.00841475 0.121349 -1.61426e-05 -1 1.41127e-05
0.0950756 0.0735708 0.1434 0.500205 -4.01696e-05 -0.865907
0.207179 0.121939 0.162674 -0.820998 -0.3209 -0.472214
0.0794693 0.0085584 0.120965 -0.68824 -0.720718 -0.0830161
0.193142 0.158415 0.109013 0.000285063 -1 7.004e-08
0.223087 0.00841522 0.123801 -5.23226e-09 -1 3.22831e-05
0.0792646 0.0211324 0.111878 -1 -2.72598e-05 7.10057e-07
0.105458 0.158415 0.105458 0 -1 0
0.219409 0.00841522 0.123801 1.41074e-05 -1 3.22674e-05
0.178923 0.158415 0.138636 0.000482592 -1 0.000551648
0.212055 0.00841522 0.123801 2.81894e-05 -1 3.22456e-05
0.208377 0.00841522 0.123801 0 -1 0
0.2047 0.00841522 0.123801 -1.41147e-05 -1 -1.45926e-08
0.199797 0.00841522 0.123801 -1.45644e-08 -1 3.22747e-05
0.19612 0.00841522 0.123801 0 -1 0
0.189991 0.00841522 0.123801 -2.01717e-05 -1 3.22935e-05
0.159964 0.158415 0.136266 0.000704753 -1 0.000257888
0.229265 0.0408651 0.138942 -0.999999 -0.00012444 0.0011383
0.0792642 0.0633978 0.133011 -0.905064 0.0906461 0.415503
0.18754 0.00841522 0.123801 -2.01743e-05 -1 -1.04314e-08
0.185088 0.00841522 0.123801 -1.41084e-05 -1 -7.29302e-09
0.181411 0.00841522 0.123801 0 -1 0
0.133896 0.158415 0.103088 -0.00025024 -1 0.000356735
0.177734 0.00841522 0.123801 -7.28878e-09 -1 3.22747e-05
0.136148 0.0865406 0.167114 0.321982 0.00747759 -0.946716
0.175282 0.00841522 0.123801 3.32718e-05 -1 3.22487e-05
0.0974373 0.140215 0.144764 0.500027 0.000294652 -0.86601
0.223087 0.00841522 0.144638 1.0125e-05 -1 -1.43533e-05
0.172831 0.00841522 0.123801 -7.28714e-09 -1 3.22747e-05
0.169444 0.158415 0.124417 0 -1 0
0.0792646 0.0211324 0.108149 -1 -8.78032e-05 1.7677e-05
0.167131 0.0474126 0.156772 7.4072e-09 -6.1376e-05 -1
0.105458 0.158415 0.120862 0 -1 0
0.165476 0.00841522 0.123801 1.40988e-05 -1 -1.45762e-08
0.197606 0.116357 0.182176 -0.846843 -0.19847 -0.493424
0.14219 0.158415 0.124417 -0.000245761 -1 -5.93625e-08
0.111031 0.0212646 0.133843 0.430839 -0.00294157 -0.902424
0.100512 0.00841522 0.0992858 -5.06833e-06 -1 1.99534e-07
0.0817596 0.158415 0.117307 0.323894 -0.931924 0.16313
0.219409 0.00841522 0.102963 2.82294e-05 -1 7.17484e-06
0.163025 0.00841522 0.123801 0 -1 0
0.229215 0.00841522 0.113995 -0.849971 0.518363 -0.0940643
0.160573 0.00841522 0.123801 2.01548e-05 -1 1.04213e-08
0.150767 0.00841522 0.123801 2.82231e-05 -1 6.45661e-05
0.0792642 0.0285909 0.105663 -1 -1.37916e-08 -0.000251256
0.145864 0.00841475 0.123801 0 -1 0
0.138636 0.158415 0.132711 0.000241604 -1 -0.0002457
0.142187 0.00841498 0.123801 1.01283e-05 -1 -3.2305e-05
0.133607 0.00841522 0.123801 2.01743e-05 -1 -6.46329e-05
0.121349 0.00841522 0.123801 -3.22748e-05 -1 4.30159e-09
0.202621 0.158415 0.105458 0 -1 0
0.118898 0.00841522 0.123801 0 -1 0
0.115221 0.00841522 0.123801 -7.17401e-06 -1 -2.86999e-09
0.111543 0.00841522 0.123801 -3.64357e-09 -1 3.22747e-05
0.135186 0.0716364 0.0967718 -nan -nan -nan
0.109092 0.00841522 0.123801 0 -1 0
0.10664 0.00841522 0.123801 -1.00872e-05 -1 3.22831e-05
0.100512 0.00841522 0.123801 3.58696e-05 -1 -2.01628e-05
0.156921 0.0648923 0.179107 0.500579 -4.57189e-06 -0.865691
0.216841 0.158415 0.14456 0.000483092 -1 -2.37333e-07
0.159552 0.114909 0.178046 -0.84979 -0.52496 0.0476867
0.088162 0.00841517 0.123808 -0.00046837 0.985929 -0.167166
0.0822548 0.107289 0.129092 -0.201827 -0.0219301 -0.979176
0.212101 0.158415 0.0995333 0.000469368 -1 0.000335468
0.0845769 0.00841522 0.123801 0.00891484 0.987278 -0.158755
0.15404 0.158415 0.150485 -0.000173622 -1 6.76842e-06
0.229265 0.119093 0.150618 -0.999905 -0.000317472 -0.0137816
0.153413 0.101086 0.140716 -0.875989 -0.0443928 -0.480285
0.13851 0.00841522 0.153218 -0.395029 -0.863626 0.313212
0.0821254 0.00841522 0.123801 0.0327496 0.987587 -0.15362
0.0794693 0.0085584 0.123433 -0.677843 -0.711996 0.183278
0.193142 0.158415 0.117307 -1.33467e-07 -1 0.000241575
0.172265 0.0602017 0.174781 -0.422042 0.874369 -0.239497
0.226764 0.00841522 0.126252 -0.31641 0.934868 0.160953
0.182326 0.0650538 0.171637 -0.535007 0.784179 -0.314373
0.163575 0.0509686 0.156772 -0.00816845 0.157747 -0.987446
0.212101 0.158415 0.138636 -2.66883e-07 -1 0.000552181
0.223087 0.00841522 0.126252 -6.47615e-09 -1 1.41115e-05
0.0792646 0.0211324 0.115608 -1 -8.75003e-06 -0.000135511
0.105458 0.158415 0.114937 -0.000241721 -1 -1.33658e-07
0.163025 0.00841522 0.148315 9.67992e-05 -1 0
0.219409 0.00841522 0.126252 -1.43531e-05 -1 1.43429e-05
0.118402 0.0752671 0.0967718 -1 0 -0
0.178923 0.158415 0.141006 -0.000245777 -1 -0.000245684
0.216958 0.00841522 0.126252 3.22092e-05 -1 1.41043e-05
0.182194 0.0642343 0.1698 -0.52316 0.794522 -0.308282
0.214506 0.00841522 0.126252 6.37233e-07 -1 2.03652e-05
0.212055 0.00841522 0.126252 1.83011e-05 -1 -3.95161e-06
0.133695 0.0887354 0.165697 0.317773 -0.23446 -0.918721
0.202249 0.00841522 0.126252 3.23092e-05 -1 1.41042e-05
0.121203 0.0534153 0.147175 -0.000113114 -1 0.000120968
0.12032 0.0176445 0.139047 0.552061 0.000250805 -0.833803
0.19612 0.00841522 0.126252 -1.43479e-05 -1 1.41212e-05
0.112568 0.158415 0.136266 -0.000348647 -1 8.16879e-06
0.192443 0.00841522 0.126252 2.22346e-05 -1 2.22652e-05
0.189991 0.00841522 0.126252 -2.0798e-05 -1 2.0995e-05
0.159964 0.158415 0.126787 0.000348138 -1 1.11245e-05
0.229265 0.0408651 0.129601 -1 -0.000133027 0.000363083
0.18754 0.00841522 0.126252 6.44231e-07 -1 2.03656e-05
0.185088 0.00841522 0.126252 -1.83095e-05 -1 3.94831e-06
0.118402 0.101551 0.0967718 -1 0 0
0.19097 0.0765021 0.17772 -0.723771 0.552511 -0.413385
0.224026 0.125644 0.156772 -0.0298385 0.00103423 -0.999554
0.181411 0.00841522 0.126252 3.24105e-09 -1 1.41115e-05
0.198793 0.13612 0.163082 -0.693565 -0.598962 -0.400264
0.177734 0.00841522 0.126252 3.66069e-05 -1 7.91444e-06
0.229265 0.122596 0.0992443 -0.9997 0.0158868 0.0186568
0.175282 0.00841522 0.126252 6.44257e-05 -1 1.4097e-05
0.172831 0.00841522 0.126252 0 -1 0
0.169444 0.158415 0.126787 0.000552486 -1 0
0.177715 0.0812074 0.191112 0.500801 0.00011352 -0.865562
0.165476 0.00841522 0.126252 1.82981e-05 -1 3.95606e-06
0.14219 0.158415 0.126787 -0.000245761 -1 -7.01172e-08
0.219409 0.00841522 0.10664 -2.03089e-05 -1 1.31164e-05
0.163025 0.00841522 0.126252 9.67992e-05 -1 1.41115e-05
0.229215 0.00841522 0.117672 -0.50011 0.865749 -0.0192071
0.160573 0.00841522 0.126252 3.22904e-05 -1 1.41188e-05
0.158122 0.00841522 0.126252 0 -1 0
0.186417 0.148411 0.160295 -0.507285 -0.795895 -0.330475
0.229265 0.061882 0.123763 -1 -0 -0
0.220395 0.158415 0.117307 -1.18709e-07 -1 -0.000483384
0.229265 0.0443678 0.14478 -1 8.93056e-05 -5.64654e-09
0.148316 0.00841522 0.126252 -1.45738e-08 -1 2.82295e-05
0.0792642 0.0285909 0.108149 -1 0 0
0.145864 0.00841522 0.126252 6.4444e-06 -1 5.09829e-05
0.138636 0.158415 0.136266 0.000313386 -1 -6.78831e-05
0.204991 0.158415 0.124417 0.000688135 -1 -0.000225254
0.136058 0.00841475 0.126252 -7.29656e-09 -1 -1.41115e-05
0.138636 0.158415 0.114937 0.000483209 -1 -2.67187e-07
0.133607 0.00841522 0.126252 -2.01939e-05 -1 -6.30854e-07
0.131155 0.00841522 0.126252 -2.86979e-05 -1 -2.86876e-05
0.121349 0.00841522 0.126252 3.22914e-05 -1 -2.82294e-05
0.202621 0.158415 0.120862 -0.00069787 -1 1.34345e-05
0.18117 0.0976437 0.193107 0.5003 -0.000630896 -0.865852
0.109092 0.00841522 0.126252 0 -1 1.41115e-05
0.104189 0.00841522 0.126252 0.00106078 -0.999962 0.00862717
0.100512 0.00841498 0.126252 -0.0293707 0.988173 -0.150503
0.216841 0.158415 0.148115 0.000458727 -0.999999 -0.00102927
0.229265 0.0688874 0.127266 -1 8.98442e-06 -0.000215048
0.109081 0.0712106 0.151486 0.49994 4.99337e-05 -0.86606
0.0968343 0.00841475 0.126252 0.0501458 0.954938 -0.292539
0.0919313 0.00841522 0.126252 0.0856357 0.881543 -0.464272
0.209813 0.109028 0.162956 -0.864041 -0.0594569 -0.499898
0.226764 0.00841522 0.129929 -0.501104 0.865379 -0.00375142
0.229265 0.143612 0.10625 -1 0.000717615 -1.81909e-05
0.212101 0.158415 0.141006 -0.000695623 -1 0.00044926
0.223087 0.00841522 0.129929 -2.32598e-09 -1 -1.43513e-05
0.178923 0.158415 0.14456 0 -1 0
0.208377 0.00841522 0.129929 2.32448e-09 -1 -1.43513e-05
0.17475 0.0640345 0.182186 -0.528466 0.791011 -0.308262
0.199067 0.158415 0.124417 0 -1 0
0.2047 0.00841522 0.129929 -1.41147e-05 -1 -3.24104e-09
0.192443 0.00841522 0.140961 1.43294e-05 -1 -1.43601e-05
0.202249 0.00841522 0.129929 1.66578e-05 -1 -7.6482e-09
0.199797 0.00841522 0.129929 0 -1 0
0.19612 0.00841522 0.129929 0 -1 -1.43513e-05
