# .PCD v0.7 - Point Cloud Data file format
VERSION 0.7
FIELDS x y z
SIZE 4 4 4
TYPE F F F
COUNT 1 1 1
WIDTH 1409
HEIGHT 1
VIEWPOINT 0 0 0 1 0 0 0
POINTS 1409
DATA ascii
0.51253712 0.012841333 0.24261616
0.68234503 0.013091135 0.24289444
0.68390006 0.015182801 0.2420475
0.50960541 0.015104349 0.24285805
0.68523329 0.016709233 0.24157399
0.69988966 0.024784213 0.24186145
0.70199817 0.024359601 0.24291402
0.69274074 0.031157494 0.24272701
0.69155407 0.032491457 0.2422968
0.49576735 0.032836478 0.24226107
0.68990296 0.033731706 0.24195482
0.49748003 0.034892313 0.24287462
0.68844849 0.035424445 0.24198499
0.68642795 0.037809383 0.24179128
0.50497574 0.042232748 0.24233915
0.67719269 0.047689833 0.24255906
0.67579561 0.049249321 0.24236915
0.67130631 0.053484987 0.24150173
0.51880652 0.055340983 0.24159394
0.52091461 0.057443596 0.2425832
0.5259589 0.061720502 0.2415401
0.52740812 0.063097797 0.24216044
0.66302955 0.061881974 0.24264842
0.66072863 0.06401135 0.24214239
0.65852702 0.066379137 0.2419354
0.53664297 0.07227812 0.24222966
0.65188211 0.073540129 0.24223925
0.65034997 0.075031772 0.24190317
0.64840865 0.077173539 0.24190375
0.64614213 0.080132358 0.24254778
0.64476746 0.081874579 0.24252141
0.54761225 0.082875587 0.24282542
0.64331686 0.083509527 0.24233869
0.64171696 0.08498425 0.24200484
0.55018979 0.085520066 0.24159802
0.64015102 0.086485609 0.24151306
0.55217379 0.087820165 0.24259347
0.55770624 0.092311084 0.24157242
0.55926967 0.093804739 0.24198674
0.63172674 0.09543249 0.24279642
0.56417567 0.098701455 0.2415248
0.62943667 0.097868882 0.24252219
0.62791944 0.099505827 0.2423404
0.56657541 0.10094712 0.24211995
0.6249088 0.10282115 0.24197677
0.62340206 0.10449551 0.24164209
0.62186527 0.10620376 0.24275978
0.5733434 0.10771531 0.24184045
0.61950749 0.10863626 0.24241279
0.57543105 0.10985251 0.2421602
0.5769372 0.11133581 0.24274383
0.61718571 0.11110994 0.24214169
0.61571795 0.11281696 0.24210928
0.61338705 0.11541073 0.24276771
0.58235705 0.11628374 0.24196115
0.58406258 0.11771196 0.24244322
0.61098206 0.11781146 0.2426464
0.60941118 0.11950028 0.2423169
0.60721654 0.1221867 0.24189228
0.60499817 0.12471275 0.2420859
0.59293002 0.12693794 0.24247107
0.60329562 0.12635419 0.24160117
0.60118401 0.13298364 0.24224925
0.58807808 -0.075285852 0.24417974
0.58979136 -0.072146267 0.24368213
0.59062731 -0.067729995 0.24412601
0.58807898 -0.065142058 0.24447159
0.59968668 -0.063946404 0.24426045
0.60868299 -0.05562583 0.24390434
0.61995405 -0.044464298 0.24410611
0.62203866 -0.042390428 0.24321526
0.62876582 -0.03595503 0.24312028
0.55855078 -0.034473628 0.24301106
0.55589277 -0.032013044 0.2432247
0.63264805 -0.031734638 0.24313591
0.55320162 -0.029622491 0.24343134
0.5506984 -0.027051816 0.24362275
0.5484432 -0.024198337 0.24374081
0.64223844 -0.023538673 0.24382311
0.54629308 -0.021231871 0.24385764
0.64461643 -0.021330694 0.24330452
0.54397529 -0.01847039 0.24406801
0.54167908 -0.015578823 0.24416317
0.53919852 -0.012901288 0.24432151
0.65445495 -0.012452163 0.24383709
0.65675801 -0.010300596 0.24333273
0.66759306 0.00020279872 0.24439435
0.68048835 0.010308065 0.24443027
0.50694567 0.017681664 0.24306655
0.50449556 0.020515924 0.24326056
0.68848461 0.020553155 0.24486703
0.69132638 0.021959892 0.24398011
0.50192195 0.02331146 0.2434203
0.69460678 0.022789579 0.24511664
0.69883859 0.025037223 0.24310762
0.49928442 0.026071051 0.24356192
0.69622636 0.025973991 0.24302647
0.49587733 0.028725361 0.24361132
0.69391036 0.028420921 0.2430346
0.49502063 0.031319819 0.24412152
0.50038201 0.037427098 0.24379663
0.50704658 0.044339783 0.24328147
0.50918543 0.046335548 0.24404679
0.67799252 0.046904616 0.24447447
0.51156664 0.048473604 0.2437343
0.51298112 0.049847201 0.24434705
0.51424664 0.05092977 0.24310862
0.51603335 0.052736502 0.24418686
0.67117721 0.053859234 0.24419853
0.66898972 0.055870838 0.24338238
0.6667031 0.058226187 0.24349567
0.52321643 0.059371676 0.24321645
0.66525567 0.059702285 0.24315548
0.52550375 0.061318204 0.24397238
0.52698171 0.062691323 0.2443579
0.52949804 0.065243274 0.24320957
0.53163236 0.067382514 0.24402252
0.65623391 0.068945639 0.24414276
0.65479153 0.070537008 0.24395914
0.53876656 0.074436434 0.24316348
0.5409407 0.076581538 0.24398527
0.54587221 0.081257358 0.24336182
0.64007384 0.086664356 0.24424498
0.55469143 0.089889102 0.24308766
0.63771695 0.088944934 0.24374998
0.55726492 0.091855787 0.24370486
0.63548589 0.091402873 0.24369931
0.55884844 0.093317591 0.24411744
0.63400131 0.093028657 0.24336942
0.56135851 0.095993578 0.24304771
0.56341827 0.098219514 0.24412474
0.56868887 0.10312059 0.24321268
0.62569863 0.10209471 0.24343812
0.57008725 0.10464435 0.24385162
0.62339115 0.10462194 0.24423754
0.57923836 0.11345685 0.24367504
0.58640492 0.11987168 0.24336013
0.58852112 0.12226487 0.2442719
0.59033954 0.12421571 0.24356937
0.60347378 0.12657864 0.24405187
0.6009497 0.12902093 0.2436334
0.59583497 0.1283657 0.24339166
0.59805286 0.12930557 0.24403495
0.60026789 0.13039199 0.24381255
0.60128736 0.13629587 0.24339932
0.58982164 -0.071446657 0.246034
0.59118938 -0.069216207 0.24568653
0.59306306 -0.067666218 0.24516477
0.59661651 -0.066132061 0.24463503
0.5855937 -0.06264925 0.24468049
0.58318985 -0.060093511 0.24487998
0.60427123 -0.059485853 0.24565035
0.58115411 -0.057287745 0.24497774
0.60708773 -0.05704014 0.24538215
0.57911098 -0.054469388 0.24510168
0.61047208 -0.053965744 0.24451073
0.57627922 -0.05218238 0.24535044
0.57308817 -0.05022826 0.24563582
0.57037836 -0.04789551 0.24587339
0.61587101 -0.048738938 0.2458981
0.61745888 -0.047127981 0.24547419
0.62665564 -0.03796833 0.2458785
0.62902516 -0.035626188 0.24525736
0.63057953 -0.034015045 0.24492246
0.63737166 -0.027628584 0.24588481
0.63913524 -0.026315676 0.24555628
0.64084685 -0.024869798 0.24540375
0.64983815 -0.016525155 0.245775
0.65222794 -0.014409142 0.24526507
0.53638119 -0.01055089 0.24459289
0.53361785 -0.0081470581 0.24480267
0.53102762 -0.0055311969 0.24496734
0.66155857 -0.0053788759 0.24560533
0.52848107 -0.002925531 0.2451835
0.66305459 -0.0039505898 0.24528393
0.6655544 -0.0021075814 0.2448169
0.52609766 -3.9832779e-05 0.24532326
0.67153966 0.0024488163 0.24619521
0.52366048 0.0028142685 0.2454509
0.52095002 0.0052222544 0.24573831
0.67350805 0.0034836819 0.2465122
0.51820272 0.0076950449 0.24595782
0.67560041 0.0053875474 0.24586323
0.67825335 0.0083278809 0.244902
0.68435174 0.012954866 0.24742027
0.68541181 0.01440321 0.24619734
0.68675703 0.015932422 0.246382
0.68795544 0.017480673 0.24504825
0.69467068 0.024814768 0.24927124
0.69575214 0.025870113 0.24526942
0.69352311 0.028512547 0.24516578
0.69238657 0.031401891 0.2451981
0.49531204 0.032256979 0.2453544
0.69036615 0.033541359 0.24481276
0.49760509 0.035302807 0.24518919
0.68838924 0.035880681 0.24454349
0.49921429 0.036512319 0.24571261
0.6861068 0.038273573 0.24455255
0.50242513 0.039482854 0.24452938
0.68448609 0.040613033 0.24506529
0.50377661 0.040986992 0.24536875
0.68187124 0.042545788 0.24473965
0.67964226 0.044771407 0.24458532
0.51111537 0.048171923 0.24589795
0.6755861 0.049670879 0.24520873
0.67414999 0.0511701 0.24502471
0.67261374 0.052576169 0.24484234
0.51792467 0.054705177 0.24450354
0.66509497 0.059930746 0.24569476
0.66252905 0.062313322 0.24583381
0.66040266 0.064229369 0.24596554
0.52898312 0.064910971 0.24546191
0.65824455 0.066536747 0.24554318
0.53381491 0.069508858 0.24466266
0.53596389 0.07167162 0.24542482
0.65275741 0.072684608 0.24516958
0.65021241 0.075259812 0.24551409
0.6480878 0.07776732 0.24539416
0.54300594 0.078786589 0.24495167
0.64618069 0.080469213 0.24526294
0.64480239 0.082230046 0.24539362
0.54692984 0.082531802 0.24527122
0.54940915 0.084898055 0.24493131
0.64252895 0.084540136 0.24496964
0.5515669 0.08709944 0.24575843
0.56018096 0.094808497 0.24485593
0.56150144 0.096314803 0.24560335
0.56564486 0.10060004 0.24472003
0.56778795 0.10281963 0.2456767
0.57234937 0.10691752 0.24463882
0.57473826 0.10907327 0.24543807
0.57631028 0.11053883 0.24597307
0.61712039 0.11122251 0.24581406
0.61565036 0.11292222 0.24578352
0.58151484 0.1154389 0.24542223
0.58319461 0.11694547 0.24585357
0.61343318 0.11546946 0.24566376
0.61100793 0.11789481 0.24524918
0.60938746 0.11959217 0.24463713
0.60724092 0.12222586 0.24458018
0.60506231 0.12479435 0.24468726
0.59248519 0.12659776 0.24547288
0.59996897 0.13029937 0.24604473
0.60091394 0.13215971 0.24545419
0.60149533 0.13535564 0.24571741
0.60248494 0.13784045 0.24459404
0.58796918 -0.075814568 0.24718049
0.58969629 -0.074012101 0.24629389
0.59644473 -0.066514447 0.24742638
0.59843916 -0.06511867 0.24715061
0.60012448 -0.063555531 0.24670783
0.60174847 -0.062013187 0.24618797
0.60929823 -0.055154156 0.24744678
0.61096799 -0.053605903 0.24701667
0.61341828 -0.051128663 0.2464958
0.56824851 -0.045100313 0.24602349
0.62018532 -0.044278447 0.24731804
0.56631601 -0.042086489 0.24607906
0.62247998 -0.041857738 0.24659213
0.56412894 -0.039277077 0.24623159
0.62417316 -0.040296327 0.24634491
0.56157571 -0.036754094 0.24643345
0.55886883 -0.034384537 0.24663928
0.63085395 -0.033632506 0.24721101
0.55623847 -0.031929612 0.2468431
0.63313687 -0.031269319 0.2465568
0.55367845 -0.029421914 0.24701957
0.63560665 -0.029004537 0.24612981
0.55117506 -0.026821783 0.24722247
0.54870188 -0.024195461 0.24740458
0.64278889 -0.023151221 0.24725579
0.64507782 -0.02085226 0.24673095
0.64741224 -0.018616632 0.24628556
0.65479481 -0.011896214 0.24709399
0.65707439 -0.0097194463 0.24654445
0.65934014 -0.0075610434 0.24607559
0.66510189 -0.002529646 0.24720886
0.66723382 -0.0017687473 0.24740759
0.66906732 0.00064620026 0.24654955
0.67649668 0.0064603533 0.24877059
0.67872137 0.0086814556 0.24852453
0.51568806 0.010528431 0.24607494
0.68086571 0.010781289 0.24853469
0.51307172 0.013187441 0.24626505
0.68272984 0.011538626 0.24812117
0.51024801 0.015532025 0.24651012
0.68475622 0.015602617 0.24831481
0.50744528 0.017972248 0.24672815
0.50471079 0.020537959 0.24692832
0.68963289 0.020248681 0.24901435
0.69171572 0.022011044 0.24602386
0.50198072 0.023027398 0.24715017
0.69948179 0.025865622 0.24740477
0.70221889 0.025466934 0.2478245
0.49926659 0.025650453 0.24733827
0.69790834 0.025572499 0.24608964
0.49693817 0.034029368 0.24650182
0.50137722 0.038501989 0.24655762
0.50576997 0.043147266 0.24627227
0.50783867 0.045174379 0.24695259
0.51323277 0.050199084 0.2465806
0.51532555 0.052278038 0.24738155
0.67399454 0.051374692 0.24739036
0.67171264 0.053461712 0.24703753
0.6695472 0.055465065 0.24624485
0.51967508 0.056423049 0.2460074
0.52223349 0.058554262 0.24658549
0.66726577 0.057668507 0.24604374
0.52442539 0.060355674 0.24675664
0.53109169 0.067070201 0.24621236
0.53324062 0.069189824 0.24702783
0.65606135 0.069052473 0.24654308
0.65461886 0.07069549 0.2465073
0.53802055 0.073806368 0.2466449
0.54017597 0.076004803 0.24729067
0.54491341 0.080716558 0.24696809
0.54643577 0.082101278 0.24747925
0.6399523 0.086780012 0.2468098
0.6383369 0.088244744 0.24648406
0.55399364 0.089164272 0.24640036
0.63683408 0.08983203 0.24615757
0.55646282 0.091125488 0.2471586
0.63534862 0.091475457 0.24627215
0.63391137 0.093152739 0.2460907
0.63142836 0.095903143 0.24630362
0.56285161 0.0978662 0.24623324
0.62943292 0.098123103 0.24668784
0.56495947 0.10023619 0.24700975
0.62796086 0.099783748 0.24651001
0.62597769 0.10201254 0.24665107
0.5692156 0.10419375 0.2464281
0.62339842 0.10473578 0.24711521
0.57169551 0.10643476 0.24699725
0.62181336 0.10629746 0.24708782
0.61867011 0.10956502 0.24614118
0.62023032 0.10791665 0.24661393
0.57868212 0.11267178 0.24682467
0.58552945 0.11916023 0.24671379
0.60942948 0.11965287 0.24737482
0.60719341 0.1221878 0.24732585
0.5904364 0.12423895 0.24637544
0.60509962 0.12481146 0.24742486
0.60355139 0.12652153 0.24710564
0.59474069 0.12798753 0.24670202
0.5967406 0.12873232 0.2473664
0.59928119 0.12994902 0.24611357
0.60199702 0.13729228 0.24666837
0.60301119 0.13903119 0.24741942
0.59009856 -0.073623881 0.24872555
0.59002984 -0.070904031 0.24823615
0.5918088 -0.068927735 0.24809071
0.5911985 -0.068239391 0.24771236
0.59385258 -0.067485854 0.24769603
0.5878529 -0.065458253 0.24811102
0.58566529 -0.06272234 0.24829075
0.60227692 -0.06162601 0.24870738
0.58340508 -0.060086787 0.24844241
0.60476071 -0.059221771 0.24804816
0.58145934 -0.057176746 0.24859068
0.60751289 -0.056760583 0.2477183
0.57927525 -0.054530501 0.24869378
0.57629138 -0.052345935 0.24897625
0.61375386 -0.050764732 0.24882023
0.61621916 -0.048333745 0.24829616
0.61781079 -0.046733029 0.24787283
0.62468594 -0.040107425 0.24867754
0.62607092 -0.038292341 0.24837615
0.62790293 -0.036941532 0.24804841
0.62930059 -0.035240542 0.24754772
0.63351357 -0.030941878 0.24894951
0.63601393 -0.028740687 0.24848686
0.6387127 -0.026735207 0.24815436
0.64122695 -0.024601994 0.24774145
0.54622662 -0.021548178 0.24756452
0.54378259 -0.018893249 0.24777538
0.64769995 -0.018282883 0.24859777
0.54156715 -0.015971856 0.24793833
0.65012902 -0.016204555 0.24805138
0.65249383 -0.014070403 0.24757197
0.53914678 -0.01321853 0.24802391
0.53630185 -0.010911658 0.2483263
0.65731913 -0.0093727773 0.24876459
0.53367496 -0.0083745141 0.24853501
0.65948069 -0.007108401 0.24824347
0.53129452 -0.0055065118 0.24860361
0.66183096 -0.00508055 0.24780777
0.66342324 -0.0037615062 0.24750569
0.52882528 -0.0027930771 0.24881975
0.66980082 0.00061115099 0.24957107
0.67410928 0.0048367511 0.24950585
0.67711866 0.0089153154 0.25068417
0.68363154 0.0096882321 0.25180933
0.67781848 0.010224602 0.24907564
0.67972487 0.010326436 0.24841297
0.68496418 0.013155825 0.25159314
0.68260634 0.013602488 0.25062066
0.68341142 0.014102028 0.24809654
0.68573964 0.016284924 0.25078702
0.68546325 0.015262747 0.24813788
0.68750352 0.018611854 0.2508482
0.6868903 0.018068053 0.24895237
0.69084048 0.020602314 0.24956103
0.68829721 0.021287486 0.24961723
0.69277054 0.023542523 0.24937218
0.69014251 0.02467935 0.25033379
0.69469303 0.024735991 0.24907656
0.69194549 0.028219856 0.2502028
0.69617885 0.025670853 0.24752165
0.70435637 0.026352664 0.24837609
0.49665928 0.028533986 0.24748656
0.6935457 0.028894888 0.24729711
0.49540052 0.030939007 0.24801148
0.6914345 0.031291317 0.24846947
0.6901176 0.033945866 0.24860616
0.49888039 0.036228966 0.24796753
0.68826157 0.036407042 0.24841718
0.50088757 0.038307473 0.24875566
0.68592572 0.038613033 0.24804866
0.68405759 0.040831603 0.24877104
0.50339574 0.040649828 0.24751832
0.68237883 0.042237289 0.24853913
0.68098956 0.043742679 0.24833992
0.67815238 0.046658747 0.24782349
0.67967379 0.045355923 0.24818574
0.51000494 0.047141939 0.24775136
0.51212054 0.049155988 0.24843813
0.67610049 0.049129106 0.24773863
0.51672703 0.053664565 0.24799326
0.51891553 0.055646449 0.24895956
0.52624714 0.062168829 0.24775091
0.66258943 0.062296588 0.24876563
0.52821273 0.064426869 0.24872883
0.53537679 0.071303785 0.24796145
0.65447223 0.070816956 0.24889921
0.65231943 0.073178299 0.24855658
0.53749561 0.073467836 0.24877858
0.65012497 0.075460918 0.24806245
0.64808726 0.078001328 0.24785972
0.5422731 0.078228988 0.24810883
0.64617103 0.080803148 0.24811684
0.64479512 0.08254195 0.24823719
0.54875773 0.084290333 0.24797378
0.6424666 0.084757827 0.2478224
0.5509572 0.086389139 0.24891536
0.55805951 0.0926008 0.24751374
0.56009322 0.094885275 0.24848609
0.63236254 0.094898783 0.24832869
0.56712121 0.10237616 0.24801853
0.56860715 0.10378247 0.24865177
0.57424212 0.10851815 0.24768947
0.61945277 0.10886335 0.24880616
0.57593197 0.10997117 0.24812229
0.57834792 0.11217435 0.24887773
0.61720973 0.11136176 0.24868828
0.61574399 0.11304857 0.24865906
0.58104712 0.11482579 0.24767803
0.61349022 0.11556543 0.24839363
0.5834564 0.11712677 0.24838656
0.61105496 0.11796429 0.24798296
0.58764404 0.12147804 0.24767819
0.58984452 0.12365221 0.24869321
0.59965706 0.12785001 0.24779803
0.59900194 0.12973572 0.2487776
0.60002899 0.13047707 0.24870536
0.60014105 0.13101776 0.24807753
0.58831227 -0.075405531 0.24947436
0.59469718 -0.067333177 0.25018588
0.59696841 -0.066426866 0.24979144
0.59889668 -0.064878322 0.24950512
0.60064232 -0.063154839 0.24922264
0.60792691 -0.056466695 0.25005883
0.6096788 -0.054832462 0.24977653
0.61131746 -0.053250372 0.24934979
0.57306027 -0.050445173 0.24925056
0.57037032 -0.048081111 0.24948366
0.56816983 -0.04533843 0.2496376
0.6182338 -0.046472784 0.2501913
0.62079233 -0.044102121 0.24978076
0.56631327 -0.042265009 0.24971734
0.62308919 -0.041688759 0.24907666
0.5642733 -0.039343942 0.24985076
0.56175083 -0.036841232 0.25002912
0.62806499 -0.036437932 0.25031826
0.62969714 -0.034904025 0.24997802
0.55899239 -0.034502897 0.2502619
0.63127756 -0.033372395 0.24957691
0.55633384 -0.032053947 0.25049797
0.64158088 -0.024311522 0.2500658
0.64311749 -0.022812676 0.24965893
0.6453594 -0.020507483 0.24901968
0.65428382 -0.012280137 0.24954599
0.65581566 -0.010841891 0.24915494
0.66449749 -0.0032689383 0.25084326
0.66649312 -0.00063657138 0.25105622
0.66576648 0.00024504683 0.24898896
0.52635169 -6.1186503e-05 0.24900506
0.67277044 0.0039327126 0.25203985
0.66795409 0.0022390208 0.25141078
0.6721915 0.0024097373 0.25054228
0.52381247 0.0027257546 0.24910042
0.67126846 0.0029783987 0.25079247
0.67472214 0.0066776234 0.25135428
0.5211426 0.0052036508 0.24937455
0.67353421 0.0056743585 0.24869063
0.67903268 0.008453154 0.25175938
0.67089188 0.0064605987 0.25094265
0.51855153 0.0077932077 0.24961859
0.67540365 0.0083606085 0.24897088
0.68132895 0.010705276 0.25119463
0.51601887 0.010523476 0.24980345
0.66807175 0.0090445029 0.25178656
0.67248803 0.0097198971 0.25083232
0.66936415 0.010806145 0.25150999
0.67114931 0.011674132 0.25135854
0.67348236 0.011813575 0.25083667
0.67680097 0.011572168 0.24978922
0.51334047 0.013112554 0.24999097
0.67382348 0.012771967 0.25104201
0.67549658 0.012388564 0.25045922
0.67778033 0.012411905 0.24912658
0.68044245 0.01298735 0.24894804
0.6783188 0.014442177 0.25055978
0.6819948 0.014180854 0.24857621
0.51056647 0.015618891 0.25018623
0.67534769 0.015784059 0.25128776
0.67049098 0.016536895 0.25172189
0.67219025 0.017638689 0.2516624
0.67980742 0.017425701 0.25123289
0.68248904 0.016372113 0.24970409
0.68424988 0.016919013 0.24858971
0.50798368 0.018336182 0.25038889
0.67633039 0.01904081 0.2515794
0.67463052 0.019408587 0.25163466
0.67890012 0.020460742 0.25159606
0.68398917 0.019367546 0.25064996
0.6805675 0.020793648 0.25140056
0.68276709 0.021644298 0.25128046
0.68698841 0.022241162 0.25039002
0.68551546 0.022328861 0.25101155
0.69103783 0.023331705 0.24939045
0.6932888 0.02445378 0.249302
0.69906467 0.024788884 0.24896474
0.70200086 0.024890967 0.25064838
0.68717945 0.025596265 0.25158334
0.68080497 0.027114121 0.25195718
0.68275452 0.027853362 0.25194445
0.68511671 0.027919136 0.251701
0.68857592 0.029263686 0.25154716
0.49494869 0.031129751 0.25050542
0.69188058 0.030828429 0.24932557
0.49660665 0.033855684 0.2493844
0.49840763 0.036073145 0.2502113
0.50296336 0.040366977 0.24965967
0.50432503 0.041763347 0.2502602
0.50551307 0.042862259 0.24912475
0.50727785 0.044599734 0.25006837
0.67910838 0.045192108 0.25045514
0.67746747 0.04660292 0.2503356
0.6755963 0.049013045 0.25005582
0.51422 0.051220395 0.24929485
0.6736514 0.05147716 0.24987763
0.51632994 0.053279597 0.25026008
0.6714915 0.053592641 0.24939917
0.66916245 0.055659696 0.24994941
0.52117687 0.057562821 0.24971619
0.66698539 0.057990234 0.24982125
0.52344 0.059535366 0.2500329
0.66482973 0.060343757 0.24970077
0.66328555 0.061804153 0.2504108
0.6601842 0.06444405 0.2494693
0.65866256 0.065921046 0.24929085
0.53025812 0.066618279 0.24959439
0.53240561 0.068725385 0.25038043
0.65653229 0.068357423 0.24916752
0.54445612 0.080313064 0.24905092
0.54597479 0.0816378 0.24967368
0.54756659 0.083120048 0.24986739
0.54908282 0.084521145 0.25039342
0.64317477 0.084167585 0.25029534
0.55328637 0.088455036 0.2496971
0.6381861 0.088428557 0.25023943
0.55562574 0.090597101 0.25036752
0.63591528 0.090778336 0.2497939
0.63372946 0.093266346 0.24985591
0.56206143 0.097241491 0.24945714
0.56416243 0.099439263 0.25045803
0.62793779 0.099999577 0.25049955
0.62567586 0.10242888 0.25009087
0.62334186 0.10481389 0.24968247
0.57097965 0.10576757 0.25020075
0.62178606 0.10641041 0.24950834
0.58063108 0.11428194 0.24982955
0.58561933 0.1194477 0.24929668
0.60940093 0.11964644 0.25010282
0.5869987 0.12089443 0.2500383
0.59237248 0.12622978 0.24921747
0.59400624 0.12751667 0.24985507
0.59584683 0.12847136 0.25046697
0.60095906 0.1343696 0.2490226
0.60191798 0.13721277 0.25027469
0.58905107 -0.07388062 0.25155753
0.59065825 -0.070022583 0.25121322
0.59260303 -0.068337038 0.25072756
0.5909037 -0.06879434 0.25141755
0.58764547 -0.065747209 0.25172246
0.60117126 -0.062777497 0.25169942
0.58558929 -0.062918521 0.25188249
0.60277241 -0.061209723 0.25120232
0.60530078 -0.058873314 0.250563
0.61161035 -0.052837152 0.25167769
0.6140976 -0.050378714 0.25117537
0.61655301 -0.047974121 0.25061202
0.62358153 -0.041479886 0.25146052
0.62503207 -0.039777528 0.25102898
0.62642634 -0.037981123 0.25066677
0.63447487 -0.030538924 0.25194809
0.55400825 -0.029321117 0.25065774
0.63647068 -0.028575983 0.25075054
0.55162781 -0.026618412 0.25082305
0.63913029 -0.026483329 0.2505255
0.54904062 -0.024102217 0.25104573
0.54634833 -0.021680327 0.2512559
0.54385197 -0.019065738 0.25144476
0.64801925 -0.017678851 0.25196004
0.54158199 -0.016206894 0.25161234
0.6504361 -0.015589764 0.25145039
0.65279126 -0.0134548 0.25098142
0.53910142 -0.013532611 0.25176626
0.65992355 -0.0070014121 0.25192696
0.66185856 -0.0051489687 0.25070015
0.66949028 0.0011496993 0.25290957
0.6667003 -8.1999628e-05 0.25015166
0.66903859 0.0035225095 0.250305
0.66155422 0.0058329087 0.25324747
0.66616368 0.0047589839 0.25188318
0.66262257 0.0067850901 0.25264254
0.66561317 0.0073333667 0.25206369
0.66793031 0.0078752413 0.25180274
0.66473699 0.0093386658 0.25210559
0.66162819 0.01113579 0.25301322
0.66354191 0.012137178 0.25251797
0.66602969 0.012475899 0.25195006
0.69412261 0.013557674 0.25305665
0.66458827 0.014189288 0.25254387
0.67039126 0.014235471 0.25145298
0.6927188 0.015223092 0.25292149
0.6668058 0.015298618 0.25206855
0.6686486 0.01558393 0.25188065
0.66244352 0.017500376 0.25354171
0.6716817 0.01738124 0.25163084
0.69210321 0.016709855 0.25198045
0.66566277 0.018467534 0.25312698
0.66853768 0.01867339 0.2524406
0.69149917 0.018436262 0.25021416
0.66807139 0.020482939 0.25301105
0.67288601 0.020487798 0.25188738
0.50541228 0.021023599 0.25058642
0.6700387 0.021289263 0.25272909
0.67213303 0.021860242 0.25234422
0.67738289 0.022284582 0.25158316
0.5025605 0.023359828 0.2508184
0.67362374 0.023305077 0.25243244
0.67569757 0.023901323 0.25223106
0.67871714 0.025378857 0.25190592
0.68183064 0.024015969 0.25135079
0.69823933 0.023863096 0.25026196
0.4996177 0.02567884 0.25105432
0.67567903 0.026652995 0.25273255
0.67839885 0.025250325 0.2519592
0.69551325 0.025462726 0.24904899
0.67364234 0.027618019 0.25338289
0.67608279 0.027610768 0.25284418
0.68320906 0.027147787 0.25168428
0.69311488 0.027677599 0.24925658
0.49617332 0.028249649 0.25111926
0.67775577 0.028688803 0.25276715
0.67993963 0.028459316 0.25228137
0.69281238 0.027647287 0.24952362
0.4950707 0.031012617 0.25146621
0.68020701 0.030641086 0.25283438
0.68485522 0.030309407 0.25224116
0.69107795 0.030092342 0.25025654
0.69159925 0.029423587 0.2499674
0.68423814 0.032217339 0.25257581
0.68902808 0.032623474 0.25119919
0.49459743 0.030948333 0.25195545
0.49603707 0.03382045 0.25161684
0.68655568 0.033810291 0.25222006
0.68865144 0.033171047 0.25096595
0.68856448 0.034343738 0.25053045
0.68335998 0.036709297 0.25337952
0.68489379 0.037655674 0.25238046
0.68643337 0.036400948 0.25125799
0.68696356 0.036093924 0.25122833
0.50046712 0.03805045 0.2509456
0.6842522 0.038135298 0.25255996
0.68524998 0.038410082 0.25126442
0.68573886 0.037751298 0.25102499
0.50256145 0.040020276 0.25168309
0.68337655 0.040723853 0.25109667
0.68395734 0.040150061 0.2508004
0.68153512 0.043074332 0.25084677
0.50944185 0.046562884 0.25086692
0.51155341 0.04859443 0.25171641
0.51852757 0.055247772 0.25101191
0.52076977 0.057185084 0.25165921
0.52549815 0.061682645 0.25100708
0.52746838 0.063927099 0.25192413
0.65847719 0.066087417 0.25181121
0.65631926 0.068487808 0.25169036
0.5345732 0.070798524 0.25128448
0.65430069 0.070973754 0.2514247
0.53762108 0.073913842 0.25115228
0.65217215 0.073427185 0.25130352
0.53934324 0.07550633 0.25057212
0.65005153 0.075843021 0.25103763
0.54182804 0.077916972 0.25121215
0.64871657 0.077470817 0.25071603
0.64679784 0.080127336 0.25059453
0.64469278 0.082664348 0.25061557
0.64147973 0.085606851 0.25095278
0.55051434 0.085888647 0.25112048
0.63981903 0.086993583 0.25056073
0.5519678 0.087293789 0.25174734
0.55706751 0.092031807 0.25100026
0.63222855 0.094944745 0.25073716
0.63009858 0.097484306 0.25061703
0.56644982 0.1015241 0.25134775
0.56808639 0.10307091 0.25168175
0.62322599 0.10486451 0.25194928
0.62170488 0.106484 0.25177625
0.57348418 0.10770427 0.25104517
0.6194762 0.10895851 0.25173238
0.57792503 0.11166248 0.25197399
0.6172753 0.11149764 0.25139818
0.61582226 0.11320709 0.25122312
0.58295023 0.11654791 0.25063995
0.61350727 0.11567252 0.25089103
0.61103857 0.11800546 0.25056031
0.5851202 0.11885139 0.25154996
0.60689175 0.12250091 0.25062254
0.58932751 0.123183 0.25085062
0.59185219 0.12557304 0.25147662
0.60506427 0.12493553 0.25086039
0.60351729 0.12656648 0.25083303
0.60053867 0.12798129 0.2511943
0.5983777 0.12915705 0.25092924
0.60007823 0.13086765 0.25152767
0.59531629 -0.067340307 0.25253347
0.59729564 -0.06638924 0.25198844
0.59879565 -0.06496162 0.25338587
0.58359802 -0.060077872 0.25205398
0.60478908 -0.059167311 0.25318465
0.58162653 -0.057163991 0.25223956
0.57917815 -0.054747194 0.25231844
0.60999882 -0.054445472 0.25210443
0.57596356 -0.052750867 0.2526421
0.57300955 -0.050617099 0.25289232
0.57066071 -0.048012067 0.25306988
0.56848925 -0.045246381 0.2532289
0.62162071 -0.043850284 0.25330046
0.56629485 -0.042470369 0.25337553
0.62416333 -0.040592089 0.25231871
0.62540489 -0.03941663 0.25346112
0.62629771 -0.038164355 0.25348008
0.62996352 -0.034753539 0.25296274
0.63276279 -0.03272951 0.25339097
0.63715315 -0.028557353 0.25319391
0.64174491 -0.023551209 0.25334716
0.6434114 -0.022188867 0.25295597
0.64501071 -0.020764699 0.25244361
0.64631844 -0.019021364 0.25217459
0.5362252 -0.011263508 0.25203359
0.65554541 -0.010761163 0.25221926
0.53359842 -0.0087416191 0.25225028
0.65758282 -0.0087689878 0.2521134
0.53121096 -0.0059279571 0.25237051
0.66634351 -0.0017505002 0.25420406
0.52865571 -0.003347931 0.25263864
0.6650303 -0.0029129256 0.25167927
0.67089099 -0.00087388273 0.25366688
0.52601612 -0.00077947124 0.2528165
0.52351367 0.0018399468 0.25308928
0.66384554 0.0010169531 0.25309491
0.6753965 0.001120926 0.25287318
0.66258693 0.0024267491 0.25419414
0.6664083 0.0023169152 0.25037536
0.66878897 0.0011995467 0.25000864
0.52113324 0.0047548539 0.25320888
0.66244084 0.0038382742 0.25310373
0.67326844 0.004005726 0.24979836
0.6791783 0.0034262657 0.2526336
0.65917593 0.0057380865 0.25460804
0.66586524 0.005604438 0.25161004
0.67681336 0.005270171 0.25022885
0.6815753 0.005866033 0.25263274
0.66273671 0.006076667 0.25252262
0.6714415 0.0060848016 0.24977873
0.68028635 0.006679811 0.25090069
0.51864237 0.0076777679 0.25322574
0.66991597 0.007978864 0.25071037
0.67519999 0.0077122515 0.24922353
0.68650156 0.0082641421 0.2530387
0.65966862 0.0092486264 0.25364178
0.66869223 0.010203357 0.25124261
0.67367315 0.010157928 0.24996188
0.6788609 0.0094810957 0.24885069
0.68395805 0.010251265 0.24955505
0.68880683 0.010514842 0.25270909
0.6560536 0.012983236 0.25516337
0.67677546 0.013542579 0.24970926
0.68728113 0.012775421 0.24997517
0.69252211 0.013276518 0.25296175
0.65759999 0.014100747 0.2545616
0.66271561 0.013770144 0.25295821
0.67220867 0.014090712 0.25092852
0.68136442 0.014904043 0.24906559
0.69123596 0.014631503 0.25252485
0.6598922 0.015839787 0.25393915
0.67499751 0.016520837 0.2509222
0.67971718 0.016603652 0.25016776
0.68501151 0.016688975 0.24904329
0.66399091 0.016870059 0.25311694
0.65661097 0.019099643 0.25538671
0.67394972 0.018741786 0.2514244
0.67878133 0.018832689 0.25111845
0.68336242 0.018771105 0.24995942
0.68962783 0.018033009 0.24927852
0.69579947 0.019358147 0.25208104
0.6968255 0.018689031 0.25367215
0.65966654 0.020087577 0.25480887
0.66542453 0.019963946 0.25342754
0.68213838 0.020776028 0.25090918
0.68701679 0.020921128 0.24950188
0.70053601 0.02105942 0.25372854
0.66956693 0.021815017 0.25287369
0.67682415 0.021373974 0.25152391
0.69030023 0.021505218 0.2492228
0.69400257 0.02178653 0.24966511
0.66512072 0.023493936 0.25427398
0.67412531 0.023607269 0.25226149
0.68129605 0.023189496 0.2512556
0.68493128 0.023362081 0.25076905
0.69680464 0.023106255 0.24964781
0.69974387 0.023046363 0.25228673
0.66777974 0.025077604 0.25399676
0.6708132 0.024907283 0.25335222
0.68816656 0.025081955 0.25043431
0.6918118 0.024942918 0.24940306
0.7022332 0.023864562 0.25258479
0.67095959 0.026065914 0.25369638
0.68329418 0.026354745 0.25129592
0.69023961 0.026634607 0.25012603
0.69421709 0.025269266 0.24899344
0.67243701 0.027928593 0.25365371
0.6863482 0.027528858 0.25123385
0.66567928 0.028766626 0.25515926
0.66794461 0.029187255 0.25491056
0.67690849 0.029721627 0.2531527
0.6893698 0.029182618 0.25091234
0.67104536 0.030214544 0.25459185
0.6737839 0.030972702 0.25413209
0.67399395 0.031312484 0.25423136
0.67819428 0.032803729 0.25373262
0.681238 0.031585693 0.25287467
0.68772703 0.032105751 0.25158244
0.69035661 0.030991506 0.25068316
0.67516971 0.034063324 0.25458166
0.67654675 0.033217553 0.25409991
0.49807984 0.035648644 0.25222838
0.68037879 0.035156339 0.25374216
0.68279237 0.034803424 0.25320095
0.68592435 0.035335608 0.25197899
0.67677182 0.037286084 0.25484917
0.67975032 0.036048513 0.25402611
0.6874038 0.036215171 0.25029084
0.50006658 0.037753161 0.25307122
0.67663586 0.038066089 0.25502795
0.68094695 0.039580595 0.2541467
0.68211925 0.041621618 0.25249034
0.68305039 0.040807769 0.2516551
0.50466776 0.042024657 0.25253105
0.68114144 0.042153049 0.25287494
0.50677401 0.044003397 0.25327438
0.51365453 0.050629668 0.2524665
0.67299157 0.051451523 0.25338876
0.51578385 0.052648444 0.25321877
0.67106807 0.053525534 0.25270674
0.6687535 0.055741038 0.25350228
0.666789 0.058315869 0.25343832
0.52297395 0.059180386 0.25230697
0.66464269 0.060709108 0.25338295
0.52503204 0.061319917 0.25339422
0.66311264 0.062068362 0.25306389
0.66156125 0.063365214 0.25259751
0.66001177 0.06468606 0.25213143
0.52952862 0.066070139 0.25295848
0.53633606 0.072690405 0.25233945
0.54047972 0.076721296 0.25239646
0.54379696 0.079689704 0.25217649
0.54532814 0.081048965 0.25269547
0.55342197 0.088769384 0.25226787
0.55491829 0.090206571 0.2527892
0.55638933 0.09167584 0.25330806
0.55910957 0.094233885 0.25205526
0.63211203 0.095020011 0.25327891
0.56121612 0.096444458 0.25299597
0.63000387 0.097560361 0.25308865
0.62785226 0.10007287 0.25289881
0.62558544 0.1024932 0.25249583
0.57033122 0.10490651 0.25349468
0.57560968 0.1095448 0.25203499
0.5798701 0.11343125 0.25319162
0.58248109 0.11599202 0.2528365
0.60932404 0.11962665 0.25267255
0.58648211 0.12031195 0.25228721
0.60781479 0.12131402 0.25250006
0.58876753 0.12269601 0.25305322
0.5934462 0.12716283 0.25203094
0.59626842 0.12850952 0.25294968
0.60032326 0.13173516 0.25193858
0.60088509 0.13306217 0.25234559
0.60137695 0.13624257 0.25341123
0.5911839 -0.069644421 0.25439426
0.59341073 -0.068194672 0.25409672
0.60327935 -0.060686328 0.25469089
0.60620499 -0.05780698 0.25457537
0.60842985 -0.055694208 0.2537494
0.61492544 -0.050246004 0.25463796
0.61719823 -0.047632877 0.25405192
0.61906421 -0.046267126 0.25365612
0.62241447 -0.042348545 0.25509897
0.62200499 -0.043127082 0.25434431
0.62375915 -0.040638085 0.25486702
0.56404865 -0.039725535 0.25353774
0.56158292 -0.037134394 0.25375816
0.62752259 -0.036341421 0.25383797
0.55880088 -0.034823231 0.2539902
0.62783194 -0.035779245 0.25486729
0.55611163 -0.032461531 0.25419387
0.55389637 -0.029647199 0.2543627
0.55176657 -0.026705435 0.25443694
0.63956875 -0.02599372 0.25387263
0.54929143 -0.024098311 0.254659
0.54656571 -0.021709537 0.25489655
0.65116459 -0.015430601 0.25470507
0.65340543 -0.013209438 0.25424567
0.65499842 -0.011854325 0.25386667
0.66030496 -0.0062175696 0.25492841
0.6661275 -0.0028480287 0.25608426
0.66958255 -0.0038124241 0.2549367
0.67242008 -0.0054542292 0.25507483
0.66397923 -0.0036737816 0.25492528
0.66304868 -0.0026024345 0.25415611
0.67437607 -0.0025323778 0.25400591
0.66230881 -0.00054642727 0.25453648
0.66162378 0.0015664902 0.25501043
0.66252828 0.00091237918 0.25339532
0.67881078 0.00088474125 0.2542333
0.68166673 0.0027374714 0.25475854
0.65986675 0.0039948178 0.25488466
0.68392277 0.0055766739 0.25309709
0.66127789 0.0067414418 0.25293165
0.66512889 0.0087050507 0.25186598
0.51603723 0.010217958 0.25351769
0.65631491 0.0093627973 0.25545523
0.66028094 0.0097327661 0.25312704
0.65795171 0.011900936 0.25413117
0.66400182 0.011137097 0.25222015
0.69148088 0.011043096 0.25361887
0.51316208 0.012536866 0.25375187
0.66796261 0.013729492 0.25147599
0.51053244 0.015084543 0.25399882
0.65279174 0.014791435 0.256742
0.6633532 0.014761481 0.25274163
0.65645868 0.016378321 0.25493461
0.65950423 0.015092659 0.25391087
0.50823236 0.018141016 0.25414208
0.65437579 0.016960721 0.25582078
0.66669583 0.01829266 0.25263867
0.66063893 0.018205004 0.25402027
0.67106736 0.019180121 0.25184569
0.6996839 0.019379647 0.25403899
0.5058704 0.021270482 0.25424805
0.6619913 0.021284699 0.25444987
0.67008424 0.021609372 0.25263521
0.50305331 0.023667976 0.25448683
0.65440547 0.022326514 0.25653145
0.65657854 0.023072474 0.25615302
0.66147286 0.023310071 0.25497377
0.66631013 0.023141414 0.25374818
0.66864747 0.023000365 0.2530908
0.65869385 0.02375718 0.25580686
0.68029296 0.025768649 0.25153503
0.50001937 0.025761569 0.25475875
0.66247976 0.025837434 0.25537539
0.66772819 0.026233161 0.25398842
0.67576569 0.026401008 0.25237527
0.49687016 0.028191842 0.25497738
0.6638605 0.02750911 0.25527775
0.66474712 0.027436785 0.25505039
0.66924632 0.029204974 0.25468847
0.67976725 0.029505456 0.25236946
0.68268406 0.030019624 0.25219029
0.66610301 0.030519683 0.25544727
0.68580431 0.031104667 0.25190026
0.4950946 0.032985963 0.25429583
0.66428256 0.031286482 0.25622725
0.66615665 0.032477718 0.25618687
0.67035264 0.032338221 0.25505212
0.66793984 0.033665035 0.25619599
0.68470985 0.033258718 0.25243783
0.67001075 0.034299579 0.25580308
0.67198336 0.035233028 0.25563598
0.67360604 0.036441408 0.25542113
0.68427551 0.036479063 0.25270402
0.6733321 0.038452636 0.25584471
0.50217664 0.0396557 0.2537038
0.67786527 0.040427558 0.25508589
0.6829344 0.039380465 0.25300357
0.67409045 0.040724378 0.25634593
0.67592567 0.042231131 0.25624281
0.67792052 0.042899456 0.25574091
0.67961705 0.042970605 0.25460833
0.68107039 0.041831154 0.25321496
0.67937845 0.044498373 0.25403947
0.68051916 0.043269917 0.25337926
0.68046367 0.043121558 0.25280893
0.50885373 0.046014458 0.25397226
0.67739326 0.047044735 0.25391626
0.67491692 0.049123857 0.25365251
0.51794165 0.054655522 0.25391814
0.52034658 0.056819886 0.25360125
0.52254415 0.058803596 0.25440979
0.52697307 0.06358698 0.25419438
0.66065508 0.064258352 0.25486454
0.65834457 0.066252954 0.25417081
0.53173935 0.068119943 0.25361091
0.65617836 0.068625547 0.25405774
0.53391236 0.070203632 0.25437608
0.65414149 0.071139999 0.25393838
0.65269482 0.072823755 0.25494325
0.53851062 0.074979916 0.25394928
0.6505937 0.075301751 0.25485951
0.53993899 0.076331899 0.25467378
0.64851719 0.077756286 0.25463232
0.64643276 0.080264881 0.25457412
0.54760551 0.083105557 0.25350174
0.64432657 0.082654744 0.25417805
0.54967302 0.085241199 0.25456497
0.6428628 0.084190786 0.25379783
0.64041388 0.086419746 0.25458491
0.63809294 0.088695027 0.25439698
0.63583541 0.091016017 0.25370997
0.55849642 0.093874842 0.25425261
0.63356912 0.093397409 0.25359571
0.56362778 0.098650418 0.25358012
0.56607258 0.10075838 0.25428116
0.56757295 0.10214373 0.25490832
0.62398213 0.10416691 0.25479457
0.57256442 0.10683332 0.25457749
0.62162626 0.10651726 0.25446776
0.6194452 0.10903692 0.25427976
0.61733997 0.1116313 0.25409037
0.61587602 0.11331742 0.25391832
0.61344504 0.1157056 0.25479475
0.58446586 0.11798885 0.25481784
0.61089683 0.11801819 0.25419188
0.5911352 0.12487984 0.25391716
0.60512286 0.12494473 0.25499186
0.60362655 0.12664579 0.25482377
0.60187209 0.12816112 0.25452137
0.60037935 0.12981728 0.25420436
0.59956461 0.12987196 0.25379598
0.60083598 0.13169761 0.25450748
0.6033895 0.13869783 0.25429055
0.58780044 -0.076273993 0.25585487
0.58901483 -0.072653137 0.25501111
0.59066701 -0.07025557 0.25494209
0.59007406 -0.069399789 0.25530466
0.58775264 -0.065667994 0.25534841
0.59605217 -0.067161262 0.25500923
0.58529985 -0.063276954 0.25550345
0.60148883 -0.062181953 0.2550827
0.58350438 -0.060287707 0.25564206
0.58142239 -0.05763267 0.25566998
0.57867366 -0.055326186 0.25595212
0.57549173 -0.053191934 0.25634855
0.61061776 -0.05401263 0.25561041
0.6120941 -0.052312307 0.2551364
0.62305003 -0.04025792 0.25641286
0.62484992 -0.038370643 0.25515383
0.62319034 -0.036760338 0.25694582
0.63081026 -0.034371875 0.25507188
0.62429237 -0.034160122 0.25749135
0.63379639 -0.032573123 0.2566624
0.62934929 -0.033954304 0.25696141
0.63631165 -0.030299013 0.25601143
0.63764298 -0.028416855 0.25554633
0.64509082 -0.02152271 0.25623778
0.54404283 -0.01911765 0.25508323
0.64717323 -0.01913763 0.25556704
0.64880759 -0.017603148 0.25528654
0.54170483 -0.016314864 0.25521749
0.53915143 -0.013747793 0.2554377
0.6536594 -0.012879323 0.25647014
0.53624094 -0.011521737 0.25569695
0.65584314 -0.010592463 0.25594953
0.53351378 -0.009105132 0.25590441
0.65797532 -0.0083353808 0.25561512
0.66853523 -0.0053187367 0.25678203
0.53098595 -0.006438599 0.25605968
0.52847862 -0.0038146116 0.25632298
0.66229141 -0.0025071921 0.2564759
0.52582657 -0.0012505437 0.2564615
0.656515 0.00679234 0.25705558
0.65838039 0.0064606564 0.25474718
0.65720224 0.0089178542 0.25492153
0.65606689 0.011591096 0.25510624
0.65989894 0.014119342 0.25362808
0.65894347 0.016529258 0.25411016
0.6507706 0.01748612 0.25779504
0.6624921 0.017681604 0.25341371
0.6517539 0.019090472 0.25711241
0.65741676 0.019503035 0.25502545
0.66169351 0.020427622 0.25431961
0.6529687 0.020810952 0.25672463
0.66562217 0.022901978 0.25380537
0.65877843 0.022589067 0.25543752
0.67398798 0.024276456 0.25225514
0.65294021 0.024754681 0.25762382
0.66311765 0.024413541 0.25486282
0.65458113 0.026135959 0.2575514
0.65989017 0.025730215 0.25583884
0.65645635 0.027424738 0.25739279
0.65870219 0.027974131 0.25697294
0.67335844 0.027731346 0.2532019
0.66137886 0.028731201 0.25632402
0.67212903 0.029129632 0.25398579
0.67522532 0.029717598 0.25343746
0.49444503 0.030983174 0.25516397
0.66154307 0.029692136 0.25666127
0.49049214 0.032868482 0.25548685
0.67469776 0.033031125 0.25437191
0.67883915 0.032047588 0.2531293
0.66708249 0.033590298 0.25627205
0.6780718 0.034811109 0.25397515
0.68201649 0.033286378 0.252886
0.49775836 0.034913369 0.25530091
0.66480035 0.035058983 0.25736111
0.68110341 0.035885524 0.25354627
0.49969691 0.037052557 0.25616762
0.66721338 0.037287988 0.25744876
0.67109275 0.03910758 0.25660607
0.68074155 0.040084288 0.25372937
0.50442851 0.041733455 0.25537738
0.67435604 0.041528571 0.25634527
0.67968446 0.041846249 0.2544187
0.67823243 0.043383151 0.25534609
0.50626498 0.043415599 0.25646168
0.67259508 0.044021145 0.25809059
0.67479956 0.044962235 0.25776973
0.67705989 0.046313025 0.25624648
0.67847848 0.045387898 0.25475338
0.51098734 0.04806117 0.25507298
0.51309013 0.050058987 0.25572529
0.51519519 0.052081764 0.25647774
0.67084366 0.053704396 0.25628957
0.51992762 0.056440316 0.2558521
0.66857892 0.055965342 0.25601166
0.66703552 0.057569005 0.25604951
0.66513389 0.06012854 0.25594229
0.66297346 0.062245812 0.25541091
0.52905387 0.065709315 0.25511324
0.65400589 0.071269371 0.25629601
0.53596157 0.072384283 0.25529927
0.53799069 0.074550286 0.25632471
0.54223013 0.078385852 0.25534379
0.54453468 0.080392547 0.25612178
0.55178052 0.087504379 0.25534281
0.55395061 0.089680709 0.25617576
0.63504004 0.091977574 0.25628933
0.63352007 0.093525968 0.25597745
0.63205218 0.095144562 0.25580657
0.56068498 0.096073106 0.25509039
0.56310409 0.098179325 0.25578484
0.62993187 0.097662158 0.25561965
0.62782407 0.10020056 0.25543165
0.62632859 0.10181799 0.25512034
0.56911373 0.10359352 0.25544202
0.57067162 0.10503032 0.25597638
0.57508337 0.10912143 0.2551454
0.57742399 0.11125077 0.2560012
0.61728531 0.11169098 0.25649092
0.61582184 0.11335111 0.25645837
0.58197653 0.11541724 0.25507444
0.58586287 0.11953101 0.25545692
0.60924727 0.1196411 0.25509053
0.58816618 0.12206277 0.25539199
0.60707974 0.12219878 0.25504348
0.59237772 0.12600897 0.25567573
0.60133338 0.13546209 0.25556123
0.59443724 -0.068109535 0.25762388
0.59673434 -0.066954881 0.25744236
0.59921294 -0.064488254 0.25685668
0.60689682 -0.058270983 0.25785062
0.60932934 -0.055733643 0.25719029
0.57304132 -0.050730303 0.25651109
0.61649787 -0.049107589 0.25832278
0.57102531 -0.047911957 0.2566244
0.61827397 -0.047398895 0.25801209
0.56881624 -0.045156881 0.25679672
0.61968595 -0.045663241 0.25748032
0.5663144 -0.042627372 0.25702021
0.62174785 -0.042991988 0.25670514
0.56386477 -0.040061321 0.25721315
0.6241892 -0.037090596 0.25650087
0.63580978 -0.038215734 0.25736877
0.5614661 -0.037459459 0.2573719
0.62749988 -0.034701977 0.2560257
0.55878323 -0.035091024 0.25757945
0.6196475 -0.034984864 0.25804859
0.63473195 -0.031956498 0.25695029
0.63087177 -0.033803225 0.25678012
0.55598521 -0.032782961 0.25783947
0.62063032 -0.031791162 0.25800565
0.62521577 -0.031695854 0.25856441
0.63810706 -0.02828576 0.25814158
0.64064217 -0.026267244 0.25761631
0.64308143 -0.024025194 0.25698951
0.64763713 -0.01902489 0.2581695
0.64936894 -0.017541785 0.25776809
0.6517387 -0.01549994 0.25718173
0.66849744 -0.0068937689 0.25864255
0.66195744 -0.0064268503 0.25907406
0.66562515 -0.0055436492 0.25722772
0.66371799 -0.0046681846 0.25632572
0.66158515 -0.0015328022 0.25670734
0.6623438 -0.0035526091 0.25622982
0.66088253 -0.00097047281 0.25777486
0.52327746 0.0013809854 0.2566919
0.66067463 0.00070121238 0.2570385
0.52095604 0.0042497483 0.25691399
0.65847111 0.0039144536 0.2570399
0.65712857 0.0061429315 0.25632349
0.51859033 0.0072621983 0.25697911
0.65501183 0.0092209075 0.2571227
0.51603812 0.0098033352 0.25731286
0.6535145 0.011478784 0.25710142
0.51312375 0.012136073 0.2574749
0.51049972 0.014682303 0.25773269
0.65223241 0.014549302 0.25711969
0.65521008 0.01526361 0.25513497
0.50810927 0.01764877 0.25787893
0.65386844 0.020780623 0.25625834
0.65862972 0.020624368 0.25497332
0.50580156 0.020874565 0.25793779
0.64904118 0.021810254 0.25896972
0.65559769 0.023863738 0.25653273
0.65102249 0.023852397 0.25808066
0.65251583 0.025077999 0.25782445
0.66200811 0.026070785 0.25538057
0.65674746 0.026968824 0.25708088
0.66536725 0.027063034 0.25461057
0.66882831 0.028377838 0.25434992
0.65333205 0.028386721 0.25853309
0.65807307 0.02996395 0.2577942
0.66487885 0.030511681 0.2557438
0.49450433 0.031027583 0.25698176
0.65591228 0.030550966 0.25851807
0.65888989 0.032170855 0.25833243
0.6626575 0.031769197 0.25688609
0.66860259 0.032484096 0.25536722
0.67142665 0.031978302 0.25483465
0.66185695 0.033626124 0.25772277
0.66368979 0.034876164 0.25751776
0.67076629 0.035071526 0.25567174
0.67409444 0.036462218 0.25497741
0.66833758 0.036630042 0.25680488
0.67723274 0.037708703 0.25450948
0.66118783 0.037214063 0.25939843
0.6631102 0.038201079 0.25888875
0.66523892 0.037799727 0.25811625
0.50168073 0.039132629 0.25698608
0.66496474 0.039348453 0.25873536
0.6697886 0.039653745 0.2570785
0.67639554 0.040609188 0.25527087
0.50342351 0.04086465 0.25796396
0.66672063 0.040719144 0.25858414
0.66874689 0.04141409 0.25818691
0.67057586 0.042652592 0.2581248
0.6709975 0.042636275 0.25788364
0.67502517 0.044564079 0.25707853
0.67759478 0.044688325 0.25577036
0.50836468 0.045415305 0.25725827
0.51043737 0.047427364 0.25796032
0.67133111 0.046674185 0.25961703
0.67635036 0.047314599 0.25680062
0.67312038 0.04854241 0.25917861
0.67542839 0.048812509 0.25709027
0.67608762 0.047636449 0.25591508
0.67439574 0.049773157 0.25757346
0.67344511 0.050993755 0.25697345
0.51734841 0.054071967 0.25728479
0.5220933 0.058449768 0.25660965
0.52430815 0.060826536 0.25650454
0.52609611 0.062906019 0.25688502
0.66287392 0.062517181 0.25789213
0.52859211 0.065336354 0.25726068
0.53110796 0.067516185 0.25667018
0.65627158 0.068705261 0.25750941
0.53330964 0.069556706 0.25746617
0.53943115 0.075955071 0.25683874
0.54175329 0.077992752 0.25746077
0.648233 0.077769913 0.25797334
0.64609653 0.08020661 0.25785163
0.54680431 0.082455426 0.25690246
0.64396948 0.082618065 0.2575956
0.54887819 0.084673122 0.25778094
0.64252323 0.084207438 0.25742397
0.64029783 0.086538516 0.25709683
0.63805866 0.088886283 0.25691244
0.55543834 0.091118224 0.25669837
0.63657808 0.090454534 0.25660083
0.55724049 0.092991859 0.25786275
0.55861259 0.094223201 0.25675699
0.56011903 0.095662065 0.25728312
0.56530893 0.10001884 0.25758526
0.62631392 0.10194181 0.25792155
0.57215846 0.10643491 0.25660667
0.57450891 0.1086516 0.25736263
0.61939001 0.10910171 0.25667793
0.57902133 0.11267968 0.25654173
0.58142412 0.11489374 0.25730494
0.61088002 0.11810984 0.25794104
0.6092872 0.11972738 0.25763682
0.58774447 0.12150741 0.25753272
0.60714364 0.12228683 0.25758976
0.59019554 0.12400879 0.25737616
0.60516894 0.12496939 0.25767693
0.60369503 0.12663879 0.25763422
0.59492618 0.12790789 0.25649801
0.60003555 0.12836213 0.25743493
0.59859699 0.12860517 0.25713778
0.60075504 0.13156576 0.25752431
0.60109168 0.13309464 0.25747931
0.60275131 0.13801213 0.25690019
0.58775014 -0.07531333 0.25932091
0.58935416 -0.071686037 0.25826433
0.59096241 -0.069890916 0.25814629
0.59199244 -0.06926506 0.2578038
0.58998358 -0.06937167 0.25906527
0.58737248 -0.066067852 0.25893596
0.58575064 -0.062998533 0.25907338
0.59949315 -0.064203806 0.25921452
0.58324885 -0.060539763 0.25928447
0.60208094 -0.061993551 0.2586748
0.60405958 -0.060642119 0.25840026
0.5808875 -0.058036231 0.25946808
0.60953254 -0.055310365 0.25992334
0.6112361 -0.053668275 0.25936422
0.61291176 -0.052028306 0.25889435
0.61467671 -0.050468076 0.25853065
0.620848 -0.047087051 0.25572768
0.61880064 -0.044448495 0.25917113
0.6195721 -0.042463139 0.25897938
0.62046397 -0.042050809 0.25762436
0.62253058 -0.039209832 0.25668728
0.61578888 -0.037848037 0.26050365
0.61828709 -0.037988856 0.25900549
0.61566466 -0.035081603 0.25942925
0.61836672 -0.03497633 0.2582947
0.61599541 -0.033549402 0.2590737
0.62021792 -0.03345466 0.25774679
0.62347001 -0.03284099 0.2577253
0.63039136 -0.032407295 0.2581588
0.61258882 -0.031898923 0.26083049
0.62652141 -0.032527544 0.25816795
0.63100076 -0.032532088 0.25819156
0.63662893 -0.029484004 0.25693831
0.55364239 -0.030091695 0.25800645
0.6334967 -0.031487048 0.25877866
0.61512798 -0.030238077 0.25995064
0.62187475 -0.028891526 0.25910431
0.63632035 -0.029658331 0.2585426
0.55154878 -0.027143721 0.25815928
0.61806077 -0.028521245 0.25958428
0.62071586 -0.027968325 0.25954318
0.54914337 -0.024470067 0.25831658
0.64014488 -0.025091328 0.25981942
0.54644531 -0.022066424 0.25856426
0.64279199 -0.023170598 0.2594001
0.64406383 -0.021129092 0.26028213
0.64604563 -0.02037992 0.25856325
0.65044367 -0.016358823 0.26159653
0.54388195 -0.019517897 0.25875151
0.54155999 -0.016737631 0.25895584
0.64909792 -0.016667772 0.26033321
0.53908104 -0.014080715 0.25912702
0.65175694 -0.014195463 0.26083416
0.53628582 -0.011745001 0.25937891
0.65395761 -0.012467428 0.26109973
0.65684044 -0.010949271 0.25835627
0.65936309 -0.0061310548 0.26069361
0.65950006 -0.0084806476 0.25972196
0.66124821 -0.0039208075 0.25917229
0.66045755 -0.0016766081 0.25888509
0.65958548 0.00045287362 0.25916067
0.65762717 0.0037411186 0.2592847
